ply
format ascii 1.0
element face 0
property list uchar int vertex_indices
element vertex 1223
property float x
property float y
property float z
property uchar diffuse_red
property uchar diffuse_green
property uchar diffuse_blue
end_header
0.457263 -0.379711 -3.44702 75 66 121 
0.525269 -0.37514 -3.48156 83 64 90 
-0.358854 -0.251241 -3.02135 92 74 99 
-0.78059 -0.142195 -2.55123 113 96 121 
-0.730744 1.00944 -2.73602 105 85 105 
-0.591963 -0.169536 -2.76851 100 92 118 
0.0700776 -0.330011 -3.2464 81 67 113 
-0.0604253 -0.796996 -2.66946 92 74 111 
0.849055 1.14638 -3.80918 43 39 79 
0.846793 1.05553 -3.86462 55 44 72 
-0.786484 -0.0164849 -2.55777 116 93 119 
0.0609865 -0.843719 -2.7689 85 71 124 
-0.528156 -1.00209 -2.63539 120 106 122 
-0.504892 1.14557 -3.00886 109 87 117 
-0.813427 0.537317 -2.57923 123 101 127 
-0.9095 0.233662 -2.43445 104 89 116 
-0.753582 1.06801 -2.72058 117 99 116 
-0.616541 0.129455 -2.75461 114 100 126 
-0.460564 0.657204 -2.99706 104 86 113 
0.947536 0.996202 -3.97152 49 40 64 
-0.424244 -0.21567 -2.95686 99 83 112 
-0.787371 0.334679 -2.58149 112 89 107 
-0.898297 -0.216761 -2.40961 113 99 124 
-0.0590961 1.07925 -3.4913 120 99 127 
-0.712335 -0.253438 -2.58959 103 89 112 
0.21727 -0.463311 -3.0172 104 89 139 
-0.421436 -0.940336 -2.86774 112 92 101 
0.0866471 1.37249 -3.70067 116 95 118 
0.727379 -0.673415 -2.45047 112 91 139 
0.71488 -0.438085 -3.72672 75 64 115 
-0.75202 0.0225734 -2.59721 110 90 112 
-0.248187 1.35338 -3.33693 117 97 124 
1.13695 0.0368506 -4.37333 76 65 120 
-0.745749 0.552157 -2.66834 117 95 120 
-0.906058 0.640034 -2.47611 111 92 115 
0.042184 0.285777 -3.27194 55 47 76 
-0.468912 -1.06282 -2.67799 118 101 92 
-0.0263409 1.23622 -3.55509 130 107 135 
-0.683952 -0.395461 -2.62558 102 88 113 
-0.0190125 1.00779 -3.53359 105 84 104 
-0.8993 0.848453 -2.49595 114 93 116 
-0.854756 0.565626 -2.55184 113 92 117 
0.36501 -0.106366 -3.39939 89 78 132 
0.710423 -0.813089 -2.41816 123 102 147 
-0.626135 -0.91612 -2.618 125 101 110 
-0.560853 0.857789 -2.92452 119 97 121 
0.0188508 -1.02949 -2.64368 73 67 98 
-0.931291 1.14311 -2.50174 112 85 103 
-0.676803 0.18329 -2.70366 111 92 110 
-0.759735 -0.21229 -2.56801 115 103 135 
-0.601206 -0.983212 -2.55926 110 95 109 
-0.405585 0.963996 -3.09968 120 102 123 
-0.432901 -0.271797 -2.93031 90 75 102 
0.0150448 -0.417098 -3.06191 103 87 145 
-0.447864 -0.303055 -2.90677 104 85 110 
0.16011 0.0686956 -3.36682 90 77 125 
-0.512894 1.34849 -3.02156 129 108 132 
-0.591176 1.0638 -2.93551 107 86 105 
3.0189 1.12556 -6.51563 226 175 159 
1.19466 -0.602669 -2.65555 70 61 111 
-0.925238 0.527164 -2.45483 112 98 130 
-0.742719 -0.14467 -2.60485 106 90 111 
0.833344 -0.664655 -3.5845 94 73 106 
-0.493973 0.37855 -2.93763 97 80 111 
-0.482352 0.324779 -2.92372 91 73 97 
2.21532 2.06764 -5.99115 126 104 127 
-0.803794 -0.725195 -2.44867 81 69 95 
1.78636 0.0143739 -5.33903 109 91 112 
-0.611839 0.153937 -2.76053 110 96 119 
-0.688595 -0.956318 -2.45023 129 111 124 
-0.699752 0.644326 -2.71599 86 75 101 
-0.40276 0.629381 -3.0674 108 93 120 
-0.284314 0.980901 -3.24009 120 100 125 
1.62802 -0.544354 -5.06453 96 83 103 
-0.769663 1.04146 -2.68142 117 94 117 
-0.101005 1.4019 -3.50299 115 98 124 
-0.53321 1.04823 -2.93052 87 74 94 
-0.268144 0.400403 -3.1846 117 101 129 
-0.910301 0.99831 -2.5157 118 95 122 
0.0988091 0.368304 -3.26245 39 37 78 
-0.905228 0.318369 -2.43141 99 84 115 
1.0823 -0.587484 -2.5679 79 69 121 
0.192858 -0.00646818 -3.40662 82 73 129 
-0.43744 0.122819 -2.96311 110 96 121 
-0.407086 -0.559879 -2.93143 95 81 109 
-0.831625 -1.01505 -2.2764 103 87 86 
0.117443 -0.234001 -3.31247 82 73 128 
0.811335 -0.576938 -2.40826 67 61 104 
-0.681252 0.87468 -2.77519 113 96 114 
-0.413804 -0.488085 -2.94167 85 76 110 
0.18867 -0.321629 -3.35055 75 60 97 
-0.514864 -0.68918 -2.79949 95 80 100 
-0.603186 0.739685 -2.86573 117 104 127 
1.39861 1.75283 -5.11783 104 84 104 
-0.722177 0.286088 -2.66717 103 84 113 
-0.324827 1.15412 -3.20192 107 90 127 
-0.862037 1.16934 -2.57695 124 101 124 
0.958412 -0.628981 -2.49847 39 36 74 
0.711571 0.619881 -3.81707 77 69 122 
-0.794038 0.0292315 -2.54489 98 81 99 
0.624053 -0.356349 -3.58172 30 30 65 
-0.0786665 1.0267 -3.46255 116 102 137 
-0.64008 -0.65813 -2.64619 115 96 122 
-0.845804 0.441724 -2.51777 107 87 115 
1.86823 -0.346534 -5.2988 111 95 118 
-0.382635 0.634293 -3.0896 98 81 110 
2.21469 2.09616 -6.01776 120 97 126 
0.968035 -0.676172 -3.70517 102 81 113 
-0.781993 1.05376 -2.70494 121 97 121 
2.25913 -0.342329 -5.70338 111 92 111 
1.52172 0.303413 -4.9466 110 93 120 
1.48817 1.26395 -5.18948 117 100 127 
-0.78159 -0.481394 -2.51621 111 100 128 
-0.132724 -0.161499 -3.046 62 55 106 
1.82081 0.397199 -5.38261 106 81 102 
-0.836801 0.314601 -2.52479 95 77 101 
-0.0338136 -1.0435 -2.59818 88 89 79 
-0.103213 -0.969351 -2.25463 81 68 64 
-0.913596 0.470272 -2.44282 108 92 123 
0.105485 -0.984512 -2.75148 84 71 111 
-0.736609 0.0162935 -2.61337 115 97 115 
2.27704 0.712333 -5.89109 111 95 113 
0.541272 1.00202 -3.48795 33 27 48 
1.58731 1.00814 -5.27086 106 88 116 
-0.710091 0.635397 -2.72512 113 95 119 
0.142589 -0.426085 -3.21401 110 95 151 
0.765949 -0.67253 -2.44404 111 87 118 
1.17564 0.200119 -4.39024 43 39 79 
1.04954 1.82264 -4.81262 123 100 123 
-0.940425 -0.376602 -2.34597 108 93 117 
-0.804101 -0.737202 -2.45552 106 93 116 
0.574182 -0.488876 -3.42598 90 77 136 
1.48646 1.58884 -5.23595 119 101 124 
-0.453195 -1.02545 -2.72574 108 93 110 
-0.118609 0.40968 -3.34834 101 84 118 
2.31723 1.71962 -6.06766 120 99 121 
-0.416461 -0.994348 -2.3102 102 85 78 
-0.525282 -0.500766 -2.82447 117 97 117 
-0.875114 0.539755 -2.51173 108 92 120 
1.15425 -0.117303 -4.36554 69 63 118 
2.28416 0.547076 -5.85679 116 101 125 
-0.0545355 -0.601546 -2.61715 70 62 118 
-0.575507 1.13101 -2.94402 111 91 117 
-0.435042 1.23388 -3.09945 112 93 117 
-0.884924 -0.0370501 -2.43573 104 82 106 
-0.529535 0.388946 -2.89088 102 80 107 
1.31308 1.39643 -4.99322 114 95 123 
-0.768803 0.344869 -2.62438 127 106 119 
-0.619796 0.27955 -2.7934 104 84 110 
1.1809 -0.806727 -3.80377 94 68 105 
-0.445597 0.819046 -3.04749 111 96 125 
0.0692864 -0.574237 -2.83627 108 90 143 
-0.177429 0.520157 -3.30417 107 89 119 
-0.670821 -0.229103 -2.64253 109 97 127 
-0.0819359 1.17641 -3.48414 127 110 141 
0.817418 -0.581408 -2.41998 60 55 99 
-0.937191 0.985627 -2.48948 108 86 111 
1.44463 1.32122 -5.17495 110 92 106 
-0.761658 0.397465 -2.63838 108 89 112 
-0.799653 0.292354 -2.56863 94 80 104 
1.44587 1.00431 -5.07351 113 96 121 
-0.6261 0.983181 -2.8388 114 94 118 
1.49176 0.23989 -4.98602 112 96 126 
0.577227 -0.40751 -3.57751 67 58 101 
-0.893725 -0.0128789 -2.42861 100 80 105 
1.331 1.19883 -5.02631 104 90 117 
-0.691511 -0.945342 -2.45518 123 101 115 
1.57088 0.725807 -5.17724 101 83 114 
-0.910008 0.662088 -2.48036 112 91 115 
-0.540063 -0.054232 -2.82614 101 88 111 
0.162775 -0.409841 -3.2442 113 97 150 
1.92302 0.534105 -5.57752 107 85 100 
-0.781531 0.839786 -2.63913 114 96 121 
-0.407719 0.676594 -3.07955 116 96 127 
-0.673753 0.569497 -2.7475 114 94 122 
-0.795713 -0.685061 -2.45715 106 91 115 
1.16421 -0.0344669 -4.38261 59 46 88 
-0.696343 -0.204523 -2.63545 107 88 102 
-0.888598 -0.105282 -2.41953 100 85 107 
0.592153 -0.831762 -2.44783 126 104 152 
0.947588 1.12213 -3.85579 59 49 83 
0.504155 -0.326584 -3.4573 35 33 72 
-0.62032 -0.728911 -2.66572 114 96 120 
0.762014 -0.669117 -2.45203 111 88 118 
2.0354 -0.311544 -5.50032 116 97 115 
-0.00522038 -0.800851 -2.71039 88 76 128 
-0.733 0.144722 -2.6318 114 98 127 
-0.581162 -0.756365 -2.70789 109 90 114 
-0.0976713 1.38334 -3.47909 122 107 132 
-0.513916 -1.03661 -2.64958 109 98 116 
0.715365 -0.413015 -3.73308 77 62 87 
-0.511627 0.829983 -2.97688 105 86 112 
2.05243 -0.530939 -5.48141 112 90 106 
-0.37647 1.43048 -3.18998 113 96 122 
-0.0556876 -0.86047 -2.66182 97 77 113 
1.60968 -0.400467 -4.99682 78 67 82 
0.0509711 -0.246627 -3.26643 90 69 101 
-0.488722 0.292141 -2.93151 114 92 117 
-0.510602 -0.184902 -2.85575 103 88 115 
-0.0312014 -0.437116 -2.74373 104 86 134 
-0.459806 1.38135 -3.08255 125 106 131 
-0.0769531 -0.289342 -3.11335 88 69 101 
-0.905485 1.1626 -2.51771 118 95 120 
-0.815341 -0.0414105 -2.53168 98 76 100 
0.860829 -0.562181 -2.40984 81 71 125 
-0.511534 -1.03487 -2.65979 118 104 121 
1.66825 0.213462 -5.2385 102 87 116 
-0.851761 0.397991 -2.51839 103 80 107 
-0.914158 -0.638235 -2.33259 69 58 85 
0.8024 -0.574755 -2.42381 69 61 115 
-0.783407 -0.625135 -2.48949 93 83 110 
2.16165 0.498021 -5.72073 115 97 118 
-0.868577 0.263871 -2.51185 89 73 103 
0.671784 -0.700163 -2.45409 121 100 145 
-0.766128 -0.918482 -2.37477 118 102 116 
-0.713911 1.02471 -2.74519 111 91 111 
-0.206129 0.564003 -3.28416 113 95 124 
-0.0740786 -0.135559 -3.10566 77 68 119 
1.66679 0.228119 -5.24017 113 98 128 
1.91094 1.65316 -5.67508 89 82 112 
1.66412 1.86142 -5.48806 125 108 130 
-0.760433 1.18955 -2.70587 115 99 124 
0.056562 0.227125 -3.25944 55 42 76 
1.20203 0.134291 -4.39907 55 48 90 
-0.582593 0.549538 -2.8536 121 100 123 
-0.0475422 -1.01196 -2.59128 85 72 113 
1.02968 -0.700062 -3.77572 87 69 112 
0.266472 -0.549925 -3.04557 95 77 108 
-0.389901 -0.970411 -2.79693 105 87 96 
0.596937 -0.355485 -3.57706 45 42 82 
-0.0510848 -0.316604 -3.12524 78 66 125 
0.734482 0.931523 -3.80078 68 61 101 
-0.672452 -0.37794 -2.64384 116 101 126 
1.96591 1.02715 -5.61674 113 97 124 
-0.337478 0.486625 -3.11075 113 92 120 
-0.518038 0.935236 -2.9949 130 112 123 
0.946365 -0.522828 -3.89923 92 80 139 
-0.604033 0.456037 -2.82285 111 93 120 
-0.931176 0.437473 -2.43099 99 81 106 
0.0917126 -0.227596 -3.27208 83 72 128 
-0.238111 1.30701 -3.33881 118 100 124 
2.53282 -1.46485 -5.78637 187 150 136 
-0.700163 0.409203 -2.69737 119 102 133 
-0.856889 -0.47182 -2.41989 111 97 120 
1.14546 0.00718538 -4.37682 68 57 100 
1.22006 -0.130979 -4.37676 46 39 78 
-0.841955 0.311441 -2.52566 114 94 117 
-0.618168 1.29733 -2.88736 115 93 110 
1.60535 1.07486 -5.33134 114 95 121 
0.678212 -0.49849 -3.47562 82 70 127 
0.749286 -0.445568 -3.70055 90 72 125 
-0.89893 0.481326 -2.47582 110 92 120 
-0.656042 -0.913876 -2.53009 133 107 111 
-0.765944 -0.220603 -2.54448 106 95 125 
-0.815687 -0.0161239 -2.51776 98 80 100 
-0.613428 -0.537888 -2.68926 122 108 134 
2.29067 -1.2425 -5.61102 107 92 111 
-0.065974 0.542034 -3.43904 85 73 104 
-0.221864 0.652153 -3.28738 105 90 115 
1.26331 -0.519285 -4.41479 69 57 114 
-0.912324 -0.448631 -2.34974 98 84 108 
-0.737589 1.19604 -2.73174 113 95 121 
-0.0320695 -0.0126809 -3.09953 45 39 77 
-0.741572 0.118237 -2.62272 109 93 118 
2.71473 -0.744691 -6.08862 209 163 146 
-0.286942 1.34338 -3.26805 121 106 133 
-0.0655241 -0.779246 -2.65964 88 68 96 
1.54903 1.19035 -5.21374 116 100 132 
0.0161417 -0.363612 -2.98864 92 79 140 
0.0408342 -0.0709727 -3.24599 89 79 133 
-0.395365 0.350286 -3.03278 108 85 114 
-0.657301 0.414702 -2.75001 120 102 131 
-0.140228 0.908835 -3.40144 102 83 117 
-0.419554 1.28683 -3.13033 100 86 111 
-0.459207 0.381506 -2.96665 107 91 120 
-0.408542 1.31804 -3.13523 110 91 119 
-0.85792 -0.280174 -2.43469 102 93 121 
-0.171571 0.922149 -3.36219 122 98 117 
-0.68603 0.660098 -2.76354 102 86 118 
-0.679366 -0.894421 -2.53008 137 110 115 
-0.38049 0.413309 -3.07381 115 93 119 
-0.366163 1.13958 -3.15091 114 100 124 
-0.916613 0.238351 -2.42597 104 88 113 
-0.704547 0.536724 -2.72677 118 98 123 
0.598519 0.87026 -3.59414 98 74 106 
-0.409491 -0.0563704 -2.9878 106 93 119 
-0.665567 0.982623 -2.83615 110 88 112 
-0.863088 0.294815 -2.49032 110 88 114 
-0.732572 0.286249 -2.63018 106 87 115 
-0.617741 0.301432 -2.7815 116 95 116 
1.83629 2.0061 -5.66792 120 101 122 
-0.58033 1.29151 -2.91566 109 88 107 
-0.416427 -0.478334 -2.92212 83 74 108 
0.473569 0.105519 -3.53935 65 59 105 
0.0482209 -0.575641 -2.80487 108 92 146 
-0.76258 0.911119 -2.65905 127 101 119 
-0.448981 1.25418 -3.13055 110 88 113 
0.270349 -0.560592 -3.04305 101 77 110 
-0.300379 0.339689 -3.15165 117 104 139 
0.0450743 -0.913254 -2.74523 102 86 132 
2.16881 -0.579931 -5.61297 124 97 109 
-0.73304 0.134065 -2.65468 112 96 117 
-0.920105 -0.337297 -2.35904 97 85 110 
-0.84991 0.439879 -2.51912 107 89 117 
0.604876 -0.381744 -3.57819 54 48 87 
-0.569158 -0.932358 -2.64348 125 101 111 
1.45301 1.24265 -5.13311 120 106 130 
1.99524 -0.348432 -5.46525 109 92 112 
0.0213563 -0.664479 -2.67529 43 40 69 
0.0695557 -0.578885 -2.83313 109 91 144 
-0.0763964 0.516057 -3.40932 93 77 109 
1.56329 -0.780522 -4.2593 61 55 70 
0.0830121 -0.453736 -2.84887 98 82 127 
-0.726972 -0.215265 -2.58917 123 112 138 
0.917689 1.03145 -3.80032 63 54 103 
-0.747287 -0.695923 -2.50788 108 89 107 
-0.90639 0.459193 -2.47376 109 88 116 
-0.422861 -0.112025 -2.95013 101 91 119 
-0.63273 -0.262545 -2.72066 107 96 119 
0.175358 -0.214576 -3.38606 79 63 92 
0.795131 0.632487 -3.9216 55 49 98 
1.63561 0.196389 -5.16816 99 88 119 
2.39475 -0.50949 -5.84163 122 100 114 
1.63845 1.94832 -5.4932 110 88 114 
0.621988 -0.58873 -2.45837 61 55 94 
-0.514155 0.690371 -2.963 118 95 123 
0.683801 -0.498222 -3.49951 80 70 127 
2.31576 -1.12994 -5.66043 124 99 114 
-0.735195 -0.533337 -2.56432 109 94 118 
1.07717 1.81418 -4.82077 124 101 119 
-0.790511 -0.0488552 -2.56936 108 87 110 
2.39994 0.572641 -5.97633 107 93 117 
-0.377995 0.545537 -3.08409 122 101 125 
-0.88564 -0.0382919 -2.42732 106 86 109 
-0.555791 0.670178 -2.89714 120 99 125 
0.784475 0.990951 -3.78884 48 42 65 
-0.133393 -0.195354 -2.94844 61 50 94 
1.13276 0.254241 -4.33702 34 33 69 
-0.0420392 1.29677 -3.52444 120 98 122 
-0.881438 -0.0198177 -2.42331 106 83 105 
-0.758831 0.714522 -2.67437 123 105 128 
-0.0936211 -0.949482 -2.54608 96 79 124 
0.0586347 -0.898155 -2.75841 101 82 126 
1.15882 -0.12685 -4.38891 66 59 112 
-0.349912 1.37358 -3.22031 127 108 130 
0.755347 0.963459 -3.77505 41 37 72 
-0.864861 0.561845 -2.51504 116 93 121 
-0.752291 0.889128 -2.68034 113 92 117 
0.795987 -0.15499 -3.84445 81 69 122 
-0.580685 0.580583 -2.85261 116 95 116 
-0.686256 -0.949385 -2.4536 132 116 128 
-0.73264 -0.208437 -2.58765 113 100 130 
-0.697227 -0.273053 -2.62738 101 86 109 
-0.640026 -0.420505 -2.69169 97 83 109 
1.18623 1.01348 -4.83072 117 103 128 
-0.210319 0.407764 -3.26188 119 104 135 
-0.359355 0.830869 -3.06221 113 93 119 
0.16009 -0.379643 -3.34576 96 83 139 
0.33335 -0.559105 -3.09578 99 85 131 
-0.669231 -0.992195 -2.47338 127 109 123 
-0.783366 0.579219 -2.62129 122 102 129 
0.18823 0.00685569 -3.37605 83 72 126 
1.60773 1.95837 -5.39215 123 101 124 
-0.368443 -0.0317035 -3.03194 86 72 96 
-0.501338 -0.16106 -2.86704 110 96 121 
0.860784 -0.452859 -3.89475 81 70 124 
1.46318 0.582179 -5.05801 108 88 114 
-0.650081 -0.557522 -2.6405 112 97 124 
-0.401706 1.00348 -3.13446 114 93 118 
0.711703 -0.737637 -2.44389 108 88 139 
0.350216 0.951101 -3.50154 48 43 81 
-0.788162 -0.377436 -2.52211 103 90 116 
-0.169108 1.24746 -3.46501 106 87 105 
1.57367 0.718333 -5.22597 108 91 119 
0.437316 0.256005 -3.49647 29 29 58 
-0.681445 -1.02076 -2.45891 93 82 97 
-0.816948 0.64633 -2.59091 109 90 116 
-0.769898 0.139779 -2.58455 105 92 117 
-0.753663 0.168272 -2.62374 110 89 118 
1.30498 -0.765806 -3.77088 92 76 118 
-0.899441 -0.199648 -2.41236 112 102 132 
1.65166 0.405587 -5.26638 115 96 119 
0.0301546 -0.895453 -2.7317 99 80 127 
-0.689249 0.739905 -2.74997 121 110 135 
0.827526 1.18735 -3.73086 50 42 74 
0.00550626 -0.767813 -2.72895 84 70 123 
-0.670595 1.20842 -2.83609 110 93 121 
1.61249 1.02556 -5.25879 114 97 123 
2.2637 0.809651 -5.89964 119 100 118 
0.564759 -0.64259 -2.47399 93 79 125 
0.567365 0.956103 -3.57163 44 38 78 
0.163286 -0.926488 -2.86707 70 59 112 
2.19607 1.72525 -5.97818 122 97 109 
-0.782982 -0.477076 -2.51492 111 98 125 
-0.371501 0.529643 -3.08556 116 94 119 
0.157829 0.499498 -3.42867 65 58 109 
-0.810037 -0.710842 -2.45055 104 92 113 
-0.754815 0.89057 -2.67349 112 92 118 
2.78395 -0.989777 -6.02867 80 50 49 
1.35861 1.35791 -5.06346 105 89 118 
-0.464601 0.139898 -2.94123 117 102 126 
-0.371154 -0.176432 -3.00768 97 80 108 
-0.80855 0.575391 -2.59443 116 95 125 
1.0338 -0.565234 -3.75591 109 89 134 
-0.837466 0.586485 -2.56231 109 88 114 
0.019168 -0.564589 -2.77319 104 88 140 
-0.533577 -1.03295 -2.62239 107 95 112 
-0.403892 0.243891 -3.01886 113 93 124 
2.33329 1.53249 -6.0458 127 99 112 
-0.770119 0.366751 -2.61918 111 96 120 
-0.305524 0.804829 -3.20156 110 96 124 
0.555895 -0.844433 -2.44608 122 103 152 
0.213696 0.0278871 -3.4172 91 71 100 
-0.458025 -0.573573 -2.87854 104 85 106 
-0.626829 0.314271 -2.8009 112 91 113 
2.08518 0.58885 -5.71504 127 101 119 
1.58337 0.918929 -5.25053 107 93 120 
0.908279 -0.680734 -2.45859 99 82 129 
-0.694208 -1.0087 -2.44056 106 91 106 
0.155574 0.139401 -3.40016 80 62 90 
2.36965 -0.386533 -5.82563 116 97 113 
-0.533824 -0.127227 -2.85173 128 108 125 
0.57147 0.940442 -3.57921 72 56 84 
2.2375 -0.167264 -5.74862 108 88 109 
-0.553647 0.820691 -2.86384 109 87 114 
1.46669 1.19645 -5.15256 123 109 134 
0.00436571 -0.340988 -3.17351 76 68 128 
0.72002 -0.857736 -2.41124 122 100 143 
1.74885 0.0760111 -5.28289 105 89 113 
0.0499804 -1.04371 -2.65377 90 78 79 
0.62829 -0.453702 -3.54106 98 85 134 
-0.872719 -0.253173 -2.42908 115 102 125 
-0.89535 0.193857 -2.45244 103 84 107 
-0.863634 0.112828 -2.46838 120 100 122 
0.64725 -0.35953 -3.636 40 35 76 
0.670693 0.964777 -3.68815 41 37 72 
0.0362617 -0.213916 -3.21953 90 70 99 
-0.395957 0.572167 -3.07544 124 102 126 
-0.0496924 -0.816694 -2.68143 82 65 100 
0.668462 -0.628136 -3.41766 106 82 112 
-0.472235 1.27821 -3.05696 99 88 118 
-0.748759 -0.132274 -2.59233 125 110 132 
0.0295069 -0.810295 -2.74946 72 60 110 
-0.622283 -0.975118 -2.5317 113 100 116 
2.19077 1.72263 -5.92767 127 98 115 
1.32983 -0.270878 -4.50466 40 35 61 
0.52613 -0.847854 -2.45774 126 103 148 
1.27534 -0.822708 -2.76093 104 77 103 
1.11217 -0.847686 -2.59139 118 94 135 
0.44895 0.638173 -3.43418 89 73 124 
1.74123 0.0834539 -5.26775 98 81 105 
-0.906875 -0.560007 -2.35408 101 94 123 
-0.793842 0.0120995 -2.53987 110 88 114 
1.019 -0.65142 -2.54549 78 65 111 
-0.854901 1.17628 -2.57615 121 93 118 
0.0341839 -0.0812924 -3.23868 84 71 129 
-0.87694 -0.859844 -2.28453 122 103 107 
1.85476 -0.212629 -5.27776 109 91 108 
2.31748 0.396847 -5.95166 108 93 121 
2.9948 1.36727 -6.47355 223 175 159 
-0.774396 -0.190134 -2.54867 103 79 100 
-0.368151 1.19459 -3.16522 111 96 125 
-0.714222 -0.907312 -2.48243 130 103 107 
0.241134 0.0372478 -3.45351 85 74 130 
1.82793 -0.195622 -5.32457 110 92 111 
0.141694 0.00331649 -3.35344 94 75 112 
-0.801787 0.587339 -2.59889 118 101 126 
0.446252 -0.44014 -3.37107 100 86 144 
-0.762443 -0.954676 -2.36452 112 100 113 
-0.396003 1.01628 -3.14746 118 97 119 
-0.732868 -0.809026 -2.56381 119 93 109 
-0.383536 1.23558 -3.17051 112 94 120 
-0.524669 0.431823 -2.87747 111 89 114 
1.60208 -0.361598 -5.07137 77 73 88 
2.121 0.72886 -6.29633 112 90 113 
-0.641097 0.993438 -2.84721 114 92 115 
-0.769757 0.247539 -2.61102 125 103 128 
-0.866194 0.113604 -2.47028 118 101 124 
-0.772061 0.861441 -2.65311 118 102 126 
1.34901 -0.441038 -4.37874 67 58 109 
0.0335332 1.35771 -3.62824 125 104 122 
-0.065716 -0.0143699 -3.0213 73 63 108 
-0.772794 -0.256245 -2.54355 104 93 119 
1.12672 -0.171502 -4.38775 81 64 94 
-0.788067 -0.586486 -2.50208 96 84 111 
2.337 -0.529391 -5.75635 120 96 109 
-0.274385 0.658254 -3.25804 103 85 113 
-0.0237272 -0.961476 -2.60946 90 76 121 
2.41209 0.638788 -5.97481 130 101 120 
-0.50226 0.402145 -2.92271 114 92 115 
-0.845878 -0.215033 -2.45498 102 87 113 
-0.830774 0.0258182 -2.4961 108 89 111 
-0.832849 -0.212513 -2.47311 105 97 125 
-0.424878 0.736277 -3.06034 118 96 122 
-0.677221 -0.996977 -2.47232 123 106 122 
-0.89672 0.454678 -2.468 106 85 112 
0.480314 0.934573 -3.49591 75 61 95 
-0.852602 0.324569 -2.49959 117 98 122 
2.59065 1.96726 -6.31279 239 188 171 
0.163215 -0.932606 -2.11094 99 83 81 
-0.192698 0.488645 -3.28092 115 99 130 
-0.17847 0.0893357 -2.85482 62 53 101 
-0.878544 0.274428 -2.4867 111 90 115 
0.764292 0.935716 -3.78457 67 55 88 
-0.366928 1.19105 -3.15796 111 96 125 
0.667893 -0.599478 -2.43309 87 73 124 
1.22291 -0.239713 -4.43713 40 37 76 
-0.593974 -0.407348 -2.697 174 69 23 
1.95961 0.0495947 -5.4707 116 94 117 
0.829349 0.79978 -3.79727 47 38 78 
-0.912101 -0.125975 -2.39025 108 89 114 
-0.87877 0.255328 -2.46575 110 92 117 
-0.84534 -0.503338 -2.49135 109 94 121 
1.86405 0.250868 -5.40979 115 91 116 
-0.800601 -0.418021 -2.50909 105 90 118 
-0.256866 0.683823 -3.24183 116 99 122 
-0.256894 0.791985 -3.24843 109 94 129 
-0.0060635 -0.554207 -2.75813 108 89 142 
1.21827 -0.675275 -3.95807 90 73 106 
-0.342842 1.28987 -3.225 109 97 120 
-0.419631 0.418011 -3.01203 112 95 125 
-0.306104 1.30118 -3.27459 99 85 113 
-0.640188 -0.903743 -2.60745 134 109 113 
-0.243183 1.24804 -3.31273 121 101 121 
-0.507769 1.12209 -2.98706 100 77 105 
-0.859647 0.505619 -2.51991 106 91 121 
-0.868375 0.727263 -2.5143 114 98 122 
-0.598148 -0.964805 -2.5679 117 104 118 
-0.440132 1.24224 -3.11182 116 96 118 
2.36911 -0.368867 -5.82209 118 101 117 
-0.461229 -0.19353 -2.91927 102 88 112 
-0.68549 0.315348 -2.69374 106 84 102 
0.499472 1.05993 -3.40204 35 31 69 
-0.624399 -0.15648 -2.72405 114 104 132 
-0.383204 0.36608 -3.0582 94 75 104 
0.457076 0.0784241 -3.53066 81 68 119 
-0.727604 0.135487 -2.63111 116 102 128 
-0.176669 1.05134 -3.37735 110 97 128 
-0.63958 -0.987442 -2.51224 119 102 116 
2.14511 -0.201104 -5.62458 116 94 115 
-0.782761 0.303748 -2.60668 108 86 112 
2.18775 1.66771 -5.74999 114 94 115 
-0.900725 0.168812 -2.44175 112 90 115 
-0.727264 0.395886 -2.79682 118 102 133 
1.92112 1.70466 -5.68041 98 83 113 
1.91762 0.477261 -5.46473 112 81 95 
-0.327384 0.556357 -3.15335 123 102 123 
-0.739067 0.448721 -2.6681 110 90 115 
-0.891393 0.194108 -2.44983 102 81 104 
-0.110268 -0.981719 -2.37334 99 81 75 
-0.792206 -0.96543 -2.34315 111 97 113 
-0.0358678 1.0068 -3.53127 136 114 131 
0.85416 0.957609 -3.87661 45 40 79 
-0.567404 0.700072 -2.89313 121 103 125 
0.299256 0.837815 -3.41089 78 65 112 
-0.631431 -1.01441 -2.49708 112 98 114 
-0.0298322 0.0333989 -3.02263 84 72 125 
0.667178 -0.783159 -2.44139 95 73 115 
-0.37757 0.545251 -3.08357 122 101 125 
-0.547478 -0.0354957 -2.83578 110 95 118 
-0.490739 0.596348 -2.95918 116 96 123 
1.12669 -0.32673 -1.4931 65 57 103 
-0.140426 1.46795 -3.45261 115 93 121 
-0.801099 -0.0327294 -2.53741 100 83 106 
-0.101145 1.51808 -3.50323 121 96 122 
-0.803522 0.99614 -2.63818 114 93 113 
-0.365408 -0.288875 -3.00575 107 87 109 
-0.670169 -0.243281 -2.67256 83 73 99 
-0.771014 -0.0393719 -2.58777 105 84 109 
0.0337379 1.52001 -3.64827 118 98 124 
0.741158 -0.565486 -2.42206 80 69 125 
-0.86416 -0.883256 -2.28132 120 107 115 
-0.805448 0.900088 -2.62382 120 100 117 
-0.76694 0.860765 -2.69747 127 106 125 
0.105861 -0.311779 -3.27544 92 77 134 
1.37593 -0.0686108 -4.42664 46 40 85 
1.07269 -0.753129 -2.59093 108 86 117 
-0.404899 1.14883 -3.09964 111 93 121 
-0.47228 0.370166 -2.9564 98 81 111 
0.667877 0.911141 -3.65085 70 55 87 
0.071335 0.167922 -3.29788 80 70 121 
-0.420787 0.34676 -2.99021 106 90 118 
0.278376 1.68368 -3.96174 120 96 121 
-0.785463 -0.958126 -2.3266 113 99 114 
-0.0470523 -0.538506 -2.71041 97 82 135 
1.8862 0.0835531 -5.43595 111 85 100 
0.21142 -0.0912088 -3.39192 88 70 105 
-0.674938 -1.00192 -2.47255 116 103 119 
0.786749 -0.52116 -3.62971 83 70 132 
-0.0158265 0.00719678 -3.20815 68 58 103 
-0.409995 -0.264517 -2.91964 88 73 99 
-0.626402 0.168046 -2.75884 123 103 121 
-0.945698 -0.351561 -2.32942 110 97 121 
1.1799 -0.948586 -2.51422 92 72 114 
-0.803873 0.279056 -2.56303 111 92 120 
0.844507 1.0371 -3.90292 36 31 56 
-0.719897 0.226092 -2.66673 97 82 108 
-0.749573 0.866009 -2.67842 127 101 124 
0.0634056 0.281818 -3.27894 60 54 102 
0.814858 0.934265 -3.84429 66 55 95 
0.932173 0.995795 -3.89245 32 26 49 
-0.800455 0.290919 -2.57701 86 69 96 
-0.751372 1.27954 -2.72095 106 85 111 
-0.477719 0.354764 -2.94915 98 83 113 
-0.669329 0.580416 -2.71843 111 91 120 
-0.756466 0.303196 -2.58416 100 80 104 
-0.684122 -0.6027 -2.61675 107 93 121 
-0.823937 -0.474761 -2.47048 101 89 116 
0.898064 0.797866 -3.93418 81 67 120 
1.59999 -0.501248 -5.0303 94 73 91 
0.540114 -0.575296 -2.44692 73 64 123 
-0.906857 -0.741652 -2.33339 97 83 107 
-0.781764 0.177122 -2.58465 111 97 121 
0.215692 -0.356503 -3.39556 86 73 130 
-0.753736 0.114388 -2.61415 98 80 109 
0.628748 0.703163 -3.76412 54 50 94 
-0.85499 0.447431 -2.51002 97 81 106 
1.75472 0.736122 -5.36664 106 91 118 
2.26645 1.72064 -6.00828 126 98 118 
0.0323172 -1.00198 -2.66974 92 77 117 
-0.294917 0.397618 -3.157 114 97 122 
-0.704582 0.105521 -2.6692 108 94 119 
-0.493975 -0.650676 -2.8248 102 81 102 
1.22929 -0.217765 -4.40015 53 45 84 
-0.646342 -0.024316 -2.72057 110 96 119 
-0.880177 0.1308 -2.46268 108 92 122 
1.97874 -0.361458 -5.46721 114 94 106 
2.18401 0.981153 -5.85098 106 94 113 
2.38995 -1.0997 -5.77762 118 101 120 
-0.798116 -0.150918 -2.51772 121 104 123 
-0.640258 0.101274 -2.75278 115 98 125 
-0.381324 1.18716 -3.16638 118 100 129 
-0.689694 0.910811 -2.76929 109 86 101 
-0.712479 0.0875468 -2.66223 112 97 122 
0.145097 -0.570633 -2.9076 98 80 122 
-0.408911 0.942988 -3.08806 118 104 127 
2.39033 -0.119881 -5.88485 122 101 125 
2.2204 0.185426 -5.72292 108 87 114 
-0.890899 -0.527615 -2.35749 94 80 107 
1.09372 0.259776 -4.32311 41 37 62 
-0.130043 -0.13964 -3.05781 47 42 84 
-0.72266 0.446551 -2.67601 112 91 115 
-0.804134 0.97931 -2.64059 113 93 117 
-0.274638 0.87663 -3.26894 81 67 95 
-0.426648 0.986512 -3.08055 112 94 116 
-0.603799 0.0786192 -2.78708 109 93 117 
-0.774949 0.312144 -2.6022 97 82 106 
-0.81687 1.00944 -2.62413 122 100 122 
-0.183885 1.07688 -3.35776 115 100 128 
-0.695953 -0.746191 -2.57195 106 84 103 
0.819655 0.85101 -3.85075 41 36 74 
1.24072 -0.493691 -4.46133 78 66 120 
0.4449 1.26459 -3.57722 91 74 133 
0.704733 0.984501 -3.70229 39 33 61 
-0.552658 1.02851 -2.99733 123 101 126 
2.32891 -1.05955 -5.65643 125 97 105 
-0.427673 0.372995 -3.01984 102 87 115 
0.582546 -0.843715 -2.4497 125 105 152 
-0.893668 0.130246 -2.44066 103 82 106 
1.15753 -0.73394 -3.88917 110 91 138 
-0.816349 -0.849697 -2.30107 126 106 109 
-0.247642 1.30046 -3.30742 110 95 127 
-0.57569 -0.527294 -2.74963 112 99 124 
-0.692144 -0.273975 -2.64692 99 85 108 
2.29632 -0.401666 -5.73161 109 91 109 
-0.885672 0.342602 -2.48242 112 91 117 
-0.702916 -0.958264 -2.42909 125 108 121 
-0.673803 -0.426997 -2.64396 93 81 109 
-0.82099 -0.869248 -2.39065 137 106 110 
0.835355 -0.485794 -3.74382 101 87 144 
-0.756353 0.903675 -2.7143 112 91 111 
-0.73843 0.869971 -2.71843 122 102 119 
2.15834 1.49386 -5.88159 122 102 116 
-0.297139 1.43706 -3.27227 114 97 128 
-0.332885 0.528202 -3.13041 120 95 117 
-0.324161 1.08477 -3.22778 123 103 123 
1.60984 0.594619 -5.19048 114 94 116 
-0.427724 0.796887 -3.06615 100 88 119 
-0.814324 -0.42355 -2.47018 118 100 123 
-0.55406 0.591423 -2.87745 112 91 111 
-0.886613 1.01759 -2.53375 99 79 109 
-0.724308 0.519534 -2.69008 112 89 121 
-0.571422 1.08588 -2.89753 126 104 122 
-0.167418 0.475417 -3.32434 102 89 121 
0.199059 -0.375001 -3.36606 87 76 132 
1.92014 0.474914 -5.44854 123 94 104 
0.748543 -0.711539 -2.44375 119 97 145 
-0.530654 0.481195 -2.87636 97 81 102 
-0.379299 1.22842 -3.17344 114 95 119 
2.31836 -0.904607 -5.71627 122 97 115 
-0.452412 -0.995466 -2.70952 117 102 120 
-0.562336 0.701386 -2.90825 124 106 126 
0.0704256 -0.358653 -3.22904 77 69 131 
-0.871275 -0.237941 -2.42747 107 95 118 
1.82422 1.93467 -5.57994 107 88 112 
2.27983 0.5751 -5.9627 112 95 121 
-0.383703 0.544369 -3.0705 116 96 123 
-0.498791 0.131131 -2.89354 105 89 114 
-0.346169 0.276016 -3.07821 115 93 122 
-0.247159 0.375546 -3.22121 113 98 130 
-0.597811 0.685178 -2.85511 118 100 124 
-0.784973 0.332971 -2.5933 112 90 107 
2.40863 0.145004 -5.92288 116 94 119 
-0.805746 -0.797736 -2.45333 88 75 97 
-0.498677 0.151693 -2.89514 131 114 134 
-0.624026 0.532257 -2.68763 111 88 116 
-0.761312 0.146565 -2.61883 114 98 122 
-0.216486 0.535016 -3.25805 111 94 123 
-0.788324 0.179736 -2.57661 110 92 120 
1.72146 0.734717 -5.31651 104 88 114 
-0.0935066 -0.426446 -3.41638 103 89 144 
0.222307 0.184938 -3.47372 86 69 101 
1.11577 -0.190066 -4.39462 82 68 112 
-0.463484 -0.180772 -2.9203 92 82 109 
0.563203 -0.383135 -3.56908 70 56 83 
0.46661 -0.633103 -2.56813 70 63 111 
1.91576 0.705347 -5.52086 107 93 114 
2.28101 -1.54183 -5.38924 95 80 94 
2.12185 -0.482015 -5.50014 122 96 113 
2.0783 -0.00514376 -5.57838 117 96 113 
-0.903236 0.0385024 -2.41194 101 83 106 
0.201001 0.543589 -3.48196 66 58 109 
-0.905699 1.08215 -2.51305 126 100 124 
0.690316 0.725339 -3.8118 32 30 63 
-0.359357 0.96533 -3.15614 109 92 115 
0.504935 -0.39137 -3.4602 81 67 112 
0.526741 -0.725679 -2.97913 50 44 88 
-0.0561379 -0.00453951 -2.98382 71 63 113 
-0.856441 -0.767108 -2.38399 105 90 114 
1.53044 0.561442 -5.10245 98 83 112 
-0.618182 1.29643 -2.90534 96 77 95 
-0.428246 -0.477081 -2.91174 90 84 118 
-0.601643 0.817752 -2.82579 103 85 112 
-0.873703 -0.770729 -2.39458 108 94 118 
0.407594 0.29077 -3.3763 41 36 72 
-0.65045 -0.90843 -2.60838 129 105 110 
-0.62247 0.117977 -2.76816 109 95 119 
0.672742 -0.73935 -2.45062 121 98 146 
-0.014028 -0.871805 -2.70744 98 74 107 
0.222209 0.0271833 -3.43203 90 70 104 
0.0259515 0.543896 -3.34985 69 60 110 
2.04301 0.952549 -5.64448 85 74 100 
-0.504379 -0.0368266 -2.90783 100 86 110 
-0.541259 0.442521 -2.88596 106 87 115 
1.18809 -0.198538 -4.39908 59 54 106 
1.02638 -0.639025 -3.74938 94 79 130 
1.14998 -0.857139 -2.66922 106 79 106 
-0.0182944 -0.32816 -3.19353 79 69 126 
-0.705756 0.486171 -2.70471 114 98 122 
-0.880293 0.727591 -2.50361 113 97 118 
-0.532445 -0.0375964 -2.84771 105 92 115 
-0.720843 -0.024574 -2.63454 109 89 112 
-0.368968 0.274921 -3.05626 117 97 124 
-0.852567 0.0188638 -2.47333 103 81 105 
-0.355188 1.12984 -3.17929 114 94 121 
-0.168315 0.751896 -3.34 123 104 127 
0.428784 0.201896 -3.49074 48 44 85 
-0.661723 0.575966 -2.7579 117 98 124 
-0.37911 0.819729 -3.06597 106 93 123 
0.481327 -0.3002 -3.48621 49 49 87 
0.0470864 0.670296 -3.21072 63 56 108 
1.00778 -0.36515 -4.20374 72 61 117 
-0.839892 -0.33266 -2.44643 99 89 119 
-0.816029 -0.576248 -2.45273 86 77 108 
1.4558 0.722303 -5.10464 100 85 116 
0.636184 0.356485 -3.89465 35 36 72 
-0.546591 0.55735 -2.91676 117 93 119 
0.0815855 -0.898962 -2.79096 97 82 111 
-0.220381 0.508349 -3.26356 116 100 131 
-0.758449 -0.519193 -2.53117 117 94 113 
-0.330449 0.492005 -3.1369 119 99 126 
1.74486 0.512485 -5.33158 103 84 111 
0.149987 -0.0349209 -3.32386 88 77 133 
0.426303 -0.391835 -3.44987 85 76 132 
-0.676334 0.503152 -2.72797 96 80 106 
-0.337278 0.801601 -3.16709 110 96 124 
-0.69469 -0.64152 -2.58858 111 98 124 
-0.58813 -0.990473 -2.56624 113 101 115 
-0.561897 0.50897 -2.87183 109 90 114 
0.708683 -0.637312 -2.45404 82 71 117 
-0.915054 0.798587 -2.47759 111 87 104 
-0.443469 -0.587691 -2.88103 104 86 106 
-0.758534 1.22223 -2.7213 116 91 117 
0.469958 -0.638563 -3.22096 114 94 141 
1.28148 -0.488632 -4.42739 72 61 117 
-0.694272 -0.225612 -2.63677 108 98 122 
-0.792766 1.0428 -2.66029 126 100 118 
-0.84744 0.534231 -2.54185 123 103 129 
-0.44622 0.0162517 -2.92844 70 61 84 
-0.596106 -1.00003 -2.5573 117 103 119 
-0.394459 0.296179 -3.04593 118 101 126 
0.116656 -0.335558 -3.28912 81 76 136 
1.79419 0.721232 -5.35785 101 85 114 
0.73887 0.962899 -3.73456 40 35 69 
-0.527826 -0.1006 -2.84117 103 89 116 
2.14249 -0.84368 -5.52597 120 96 106 
0.192056 -0.369153 -3.36638 87 75 132 
0.790398 0.487406 -3.89938 68 60 111 
1.59149 0.411946 -5.18255 104 87 112 
-0.904025 0.771128 -2.50069 120 95 116 
-0.860986 -0.852661 -2.38012 131 103 102 
-0.479002 0.132161 -2.93132 109 94 121 
0.481701 0.546171 -3.38761 88 75 130 
-0.770967 -0.18518 -2.57631 118 100 122 
-0.413817 0.366851 -3.015 105 88 117 
-0.304605 1.21519 -3.24068 111 95 127 
-0.0802742 -0.0362801 -2.9575 57 50 86 
0.0728457 0.256297 -3.30643 46 36 65 
-0.490396 0.855223 -2.98721 119 94 119 
1.13497 -0.132587 -4.38034 81 71 124 
0.551562 0.48979 -3.66229 83 72 126 
-0.57268 -0.858707 -2.71626 118 99 117 
-0.82736 0.42736 -2.54481 111 92 115 
1.33198 -0.35401 -4.50776 76 63 103 
-0.584063 1.1526 -2.91383 107 83 104 
-0.680108 -0.981118 -2.4609 120 103 118 
1.69055 1.56051 -5.40373 117 104 130 
-0.902972 0.111082 -2.43106 125 107 126 
2.18601 -0.207827 -5.6627 117 98 117 
-0.385067 1.20855 -3.14926 112 94 119 
-0.131658 0.961281 -3.4059 110 96 127 
-0.829706 -0.824501 -2.43186 101 78 95 
2.42097 1.2734 -6.14885 124 96 114 
-0.545625 -0.933875 -2.66779 128 106 109 
0.164612 -0.795688 -2.87768 63 54 104 
0.342066 -0.459276 -3.22736 107 89 147 
-0.770387 -0.365586 -2.53123 100 86 114 
-0.517975 -1.0195 -2.64687 110 99 114 
0.132939 -0.927678 -2.84186 91 75 121 
0.548012 -0.62556 -3.28538 83 64 101 
-0.852409 -0.740778 -2.43458 115 94 111 
0.772296 0.736024 -3.89357 27 25 54 
0.182326 1.67556 -3.84411 132 106 124 
0.423966 0.25795 -3.38747 27 26 54 
0.491478 0.94456 -3.51105 73 58 86 
-0.845484 -0.840844 -2.38329 105 86 99 
2.36885 -1.39738 -5.67962 112 92 108 
0.324068 1.00477 -3.39345 42 36 52 
0.0806722 -0.0172949 -3.30368 91 78 132 
-0.0488162 1.28554 -3.55977 109 94 119 
1.55823 0.58104 -5.11901 103 88 114 
-0.749818 -0.380031 -2.61593 108 94 120 
-0.0503003 -0.868113 -2.67335 87 72 124 
-0.401612 0.803002 -3.09012 101 89 120 
0.731827 -0.568078 -2.41742 79 68 123 
1.91152 -0.483593 -5.34159 101 87 106 
-0.485346 0.543525 -2.98844 114 96 121 
-0.786453 -0.979338 -2.16423 99 80 76 
0.737856 -0.455666 -3.68743 95 81 136 
-0.292291 0.518672 -3.19144 123 102 117 
0.153831 0.456965 -3.34898 82 69 109 
-0.501745 0.705092 -2.96031 117 95 119 
-0.476867 -0.0588951 -2.90016 108 91 111 
2.77841 0.548719 -6.31775 221 174 157 
2.57514 -0.281263 -6.04561 216 172 155 
0.188739 0.238386 -3.45358 92 68 99 
-0.417081 0.551538 -3.05487 117 96 121 
0.199391 0.498589 -3.48659 85 63 92 
2.57496 0.170317 -6.04804 232 182 167 
1.84334 0.193233 -5.27967 119 93 119 
1.30448 -0.226043 -4.4039 38 33 72 
-0.928091 -0.610908 -2.31608 90 83 113 
-0.788752 -0.87586 -2.36671 133 108 111 
0.217027 -0.589131 -2.97347 110 91 145 
0.143845 -0.357549 -3.30769 83 72 131 
2.40218 -0.378501 -5.85656 117 94 111 
-0.649647 -0.547916 -2.65739 99 90 118 
1.13736 -0.102943 -4.36229 80 70 127 
-0.499881 0.348748 -2.92456 96 76 104 
-0.539201 0.686541 -2.90942 103 86 115 
-0.437682 -1.05728 -2.74788 104 90 114 
2.08207 0.569942 -5.67069 129 102 120 
0.434134 -0.622104 -3.19067 109 89 138 
1.05109 -0.399875 -4.22671 93 69 100 
-0.696773 -0.97786 -2.42208 112 100 116 
0.0395088 -0.347767 -3.20907 76 69 128 
-0.392244 0.285317 -3.04079 119 97 122 
2.13304 -0.808542 -5.49289 119 93 106 
2.31899 -1.26291 -5.62543 103 91 108 
-0.93262 0.143661 -2.40721 118 99 123 
1.43885 -0.750119 -2.90976 87 69 94 
-0.648196 -0.551839 -2.65839 109 99 125 
0.0606144 -0.932312 -2.80305 110 87 135 
-0.327274 0.661836 -3.16366 117 100 127 
-0.637518 -0.173683 -2.71072 107 101 126 
-0.185869 0.905262 -3.31979 116 93 122 
2.42289 -0.237996 -5.95154 119 101 118 
0.0796202 -0.585776 -2.83983 108 90 143 
1.18824 -0.0444969 -4.39691 75 63 97 
2.05864 0.915068 -5.74077 108 94 124 
1.86947 0.562277 -5.50286 113 94 111 
1.97054 -0.674539 -5.49139 248 178 161 
-0.853245 -0.908679 -2.23207 40 23 15 
-0.843284 -0.95634 -2.21768 35 20 15 
-0.840658 -0.95066 -2.26005 248 173 157 
-0.808045 -0.904115 -2.28185 28 16 15 
1.9975 -0.732896 -5.49027 51 27 19 
0.624456 -0.173499 -3.59409 163 180 186 
-0.886103 -0.950479 -2.18938 244 173 153 
-0.891617 -0.879832 -2.18614 29 16 15 
-0.880675 -0.89322 -2.20174 253 184 163 
-0.814445 -0.918083 -2.26191 249 176 159 
0.610629 0.028615 -3.63942 14 33 64 
0.648544 -0.206936 -3.44951 198 212 216 
0.500688 -0.0761476 -3.62538 24 24 51 
-0.801214 -0.970615 -2.27409 24 16 13 
0.714994 -0.19302 -3.46858 185 186 187 
-0.799352 -0.980221 -2.27142 33 19 21 
2.54285 -1.6752 -5.79598 222 180 164 
0.684239 -0.181079 -3.46862 91 91 101 
0.714003 -0.179919 -3.47646 162 166 171 
-0.893515 -0.954322 -2.16647 24 15 13 
0.609713 0.965485 -2.98227 44 34 70 
0.727947 -0.224782 -3.45621 14 16 22 
-1.02015 -0.971552 -2.1651 15 12 13 
0.631273 0.231338 -3.653 91 115 135 
0.65439 -0.258247 -3.434 26 25 36 
1.22743 -0.967321 -2.51685 135 89 76 
-0.883113 -0.967543 -2.16933 29 17 14 
0.629577 -0.0198667 -3.55505 68 77 96 
0.204393 -0.65604 -2.75084 18 21 42 
0.522558 -0.20321 -3.53286 158 159 168 
2.49979 -1.56592 -6.03162 196 156 142 
0.688276 -0.220636 -3.43448 54 64 82 
0.65377 -0.0136556 -3.54903 160 180 192 
-0.887514 -0.906681 -2.18802 250 183 165 
1.02411 1.01399 -4.12367 23 20 42 
0.694849 -0.526806 -3.40399 192 141 124 
1.49667 -0.0435565 -4.34984 97 83 141 
0.525834 0.194822 -3.64322 36 31 56 
0.582632 0.21241 -3.64185 18 19 41 
0.529966 -0.536603 -3.25373 59 50 63 
1.45489 -0.0205454 -4.33749 107 90 145 
0.511141 -0.130948 -3.65245 24 20 45 
-0.870813 -0.897464 -2.22521 41 21 16 
1.45754 -0.0252747 -4.34056 106 88 142 
-0.595654 0.938223 -2.98021 129 109 127 
0.704401 -0.242342 -3.44009 147 165 173 
-0.75487 0.808008 -2.80032 59 46 54 
0.282997 -0.464425 -3.23629 59 49 72 
0.421635 -0.341109 -3.39388 44 35 66 
-0.865467 -0.0859052 -2.52847 56 48 54 
1.45927 -0.0257816 -4.34234 105 90 143 
0.0891891 -0.473646 -2.8123 50 46 60 
0.614283 -0.246673 -3.42814 87 80 95 
0.592431 -0.273827 -3.43526 135 117 129 
-0.510714 0.110417 -2.90996 54 52 73 
-0.507048 0.499027 -3.00187 61 52 61 
-0.47454 0.200476 -2.98591 54 45 57 
0.0383442 -0.412614 -2.88378 58 51 76 
0.0873058 -0.474535 -2.81343 54 50 63 
0.96952 0.551293 -3.8151 103 86 141 
-0.80905 0.80722 -2.75758 57 45 56 
-0.122401 -0.28248 -2.8556 38 35 69 
1.9748 -0.0428337 -5.47504 57 43 52 
0.693593 -0.246473 -3.43901 113 132 149 
0.703923 -0.298343 -3.55372 65 89 103 
-0.0527172 -0.436465 -2.67328 53 46 61 
0.123436 -0.157122 -3.27879 46 45 94 
0.944102 0.310054 -4.06099 28 28 60 
0.343469 -0.493254 -3.06679 50 43 58 
-0.531322 0.16899 -2.89758 135 115 139 
-0.843585 0.0827807 -2.57697 136 122 141 
-0.594047 0.362156 -2.87855 61 50 59 
-0.830623 0.493236 -2.67825 50 41 59 
0.0751986 -0.121095 -3.22149 29 24 53 
-0.741871 -0.841616 -2.49719 116 102 126 
-0.125685 1.09945 -3.43412 116 99 111 
0.8393 0.718722 -3.74669 15 16 36 
-0.37458 -0.979677 -2.75349 70 56 58 
2.47802 1.39617 -5.98829 106 79 100 
2.50345 -1.4863 -6.09005 112 84 80 
0.310061 -0.504367 -3.03167 57 49 69 
0.43021 0.112709 -3.43313 32 27 53 
1.26093 1.06522 -4.78488 50 38 58 
0.95484 0.606474 -3.86889 81 70 122 
-0.433819 0.0231604 -2.97777 70 60 79 
0.360242 -0.26385 -3.3393 50 38 69 
-0.48985 0.0203755 -2.92414 54 46 62 
-0.52992 0.16815 -2.89977 136 116 140 
2.08521 1.22554 -5.59825 56 41 49 
1.72417 1.40443 -5.24702 50 43 55 
-0.798289 -0.306954 -2.54415 66 57 76 
-0.532943 0.0638432 -2.88741 133 112 134 
-0.548836 -0.851783 -2.71487 64 50 60 
-0.377913 0.461439 -3.10671 54 48 69 
0.567203 0.143497 -3.65323 51 45 81 
2.01543 0.973718 -5.51606 54 42 59 
-0.564552 0.208661 -2.8937 46 41 59 
-0.551005 -0.460505 -2.79216 52 45 64 
2.09176 -1.21022 -5.61089 57 48 57 
-0.547267 -0.700363 -2.7551 83 64 79 
-0.573818 -0.612485 -2.72161 139 115 134 
0.12044 0.361596 -3.24691 38 37 77 
-0.518567 -0.858672 -2.74385 135 112 116 
-0.876808 0.223917 -2.57662 39 30 39 
-0.531308 -0.722774 -2.75737 135 104 120 
1.01285 -0.556472 -3.85333 69 57 97 
-0.549271 -0.370053 -2.78945 126 109 130 
1.80689 -0.311075 -5.33583 62 52 66 
1.23174 -0.806761 -3.86134 56 51 84 
-0.516527 -0.832782 -2.73406 68 57 76 
-0.460412 0.249563 -2.99079 56 42 62 
1.38266 -0.172019 -4.79089 70 60 110 
0.0079424 -0.414256 -2.85051 59 56 85 
0.124073 0.0589082 -3.3005 43 40 88 
0.784764 -0.319641 -3.77833 49 39 65 
0.892255 -0.195927 -3.89115 42 32 64 
0.751808 -0.321575 -3.73869 34 26 49 
0.777853 0.435591 -3.79779 48 38 68 
0.460123 -0.148138 -3.44296 53 41 73 
0.693293 -0.270886 -3.45629 30 37 54 
1.23363 1.41451 -4.76485 47 39 56 
-0.585108 -0.33514 -2.78348 40 32 39 
0.257542 -0.495949 -2.97254 103 82 132 
-0.483832 0.816873 -3.06941 67 56 68 
-0.854232 -0.113507 -2.54287 125 105 121 
-0.0780582 -0.241114 -2.92022 119 102 148 
1.52062 -0.688891 -4.29091 36 34 37 
0.16127 -1.01762 -2.72454 45 40 46 
0.311473 -0.562131 -3.02926 70 62 87 
0.474705 -0.525778 -3.19377 108 90 137 
2.08516 0.770198 -5.59658 63 51 67 
-0.555449 -0.34158 -2.80974 53 43 53 
0.380683 0.289518 -3.30377 27 25 57 
1.73664 -0.254822 -5.22924 128 105 118 
0.530914 -0.595041 -3.25081 73 60 87 
-0.713346 -0.847421 -2.52899 139 117 138 
-0.154737 0.600583 -3.33507 63 57 81 
1.13724 -0.778064 -3.75157 63 54 79 
1.14955 0.251796 -4.25308 39 37 78 
1.3909 -0.603381 -4.21314 49 49 73 
-0.614602 -0.932571 -2.49039 76 59 67 
-0.874579 0.495464 -2.62324 66 53 68 
-0.81383 -0.958604 -2.26083 241 172 153 
0.879967 0.611937 -3.78629 89 73 125 
2.11054 0.822798 -5.60847 74 63 76 
0.703673 -0.260652 -3.45183 32 41 65 
2.09203 -1.21151 -5.61712 57 48 57 
-0.730757 0.224085 -2.72437 61 48 63 
-0.756144 -0.826636 -2.49138 57 43 41 
-0.636819 -0.311714 -2.70279 113 100 127 
1.7361 -0.254162 -5.2227 128 105 118 
-0.0769751 -0.246099 -2.91712 111 93 142 
-0.449958 0.0422964 -2.96266 132 110 133 
-0.862526 -0.0936069 -2.50042 128 109 128 
1.32865 -0.643154 -4.06376 66 58 82 
2.18984 0.105046 -5.7162 74 57 69 
-0.726717 -0.59074 -2.57439 138 113 126 
-0.743099 -0.578063 -2.54524 127 108 125 
-0.697501 0.338335 -2.79072 137 118 135 
2.45727 -1.24803 -6.05272 92 66 79 
0.800858 0.303477 -3.81671 77 66 128 
0.179579 -0.944666 -2.75225 122 101 146 
-0.696622 -0.490911 -2.60771 86 67 82 
-0.0826929 -0.317593 -2.90009 103 85 138 
2.34374 -1.59357 -5.78885 124 103 122 
-0.748467 -0.0964456 -2.65667 59 47 62 
-0.202261 1.04844 -3.36139 73 65 92 
0.12565 -0.0490269 -3.27137 113 97 150 
-0.745879 -0.581503 -2.54354 113 97 121 
1.28253 1.40979 -4.80715 55 45 58 
1.89521 -0.783869 -5.42249 81 62 73 
-0.848746 0.220625 -2.60577 43 34 44 
-0.104764 -0.275295 -2.87359 93 74 101 
0.475535 0.320249 -3.51974 75 65 120 
-0.788434 0.78962 -2.77373 122 107 134 
0.504936 0.450273 -3.52726 27 24 46 
0.929453 -0.727003 -3.54804 58 49 71 
2.48079 1.53149 -5.98333 120 91 105 
0.221519 0.37128 -3.43312 44 41 81 
-0.532825 -0.862058 -2.72586 132 113 126 
0.531139 -0.307026 -3.43097 49 46 86 
0.118599 -0.774918 -2.78299 44 43 55 
0.430254 0.151226 -3.4185 90 71 100 
-0.7575 -0.83743 -2.46687 105 87 113 
0.556513 0.414745 -3.59741 20 20 46 
1.82895 -0.716475 -5.34285 131 109 118 
-0.481828 0.905516 -3.07601 71 60 82 
-0.855032 -0.113149 -2.54611 124 104 119 
-0.814263 -0.545707 -2.47975 57 48 67 
1.57629 -0.370898 -5.0173 32 27 42 
2.29811 -1.56682 -5.7361 136 119 128 
-0.685749 -0.48933 -2.6281 120 104 128 
-0.866436 0.48425 -2.63866 122 105 127 
-0.807356 -0.922974 -2.26718 236 171 148 
1.63316 -0.189946 -5.14029 43 36 52 
-0.520953 -0.799037 -2.73831 112 91 116 
0.902983 0.410199 -3.8268 30 28 62 
0.140967 -0.469051 -2.86008 76 66 91 
2.09515 0.640457 -5.58511 87 72 84 
0.202294 0.577402 -3.33439 37 33 72 
0.418988 0.0720881 -3.41869 82 70 119 
-0.0816645 -0.310945 -2.90608 98 80 133 
1.24568 1.3907 -4.77788 128 105 124 
-0.559662 -0.86192 -2.69279 112 97 126 
-0.289162 0.882787 -3.25581 79 67 87 
0.118005 -0.77522 -2.78442 44 43 55 
2.47527 -0.632999 -6.06274 106 85 102 
-0.498952 -0.538044 -2.82587 144 124 142 
0.133244 -0.463105 -2.84996 64 58 79 
-0.809054 -0.28808 -2.5303 122 107 134 
1.84441 0.441811 -5.30957 125 105 122 
0.908606 0.703764 -3.76673 42 33 71 
1.17817 0.674999 -4.1279 87 72 129 
-0.755121 -0.833244 -2.47166 102 90 120 
-0.516252 0.166872 -2.93051 138 118 138 
1.61291 -0.281545 -5.11258 36 30 42 
0.641747 -0.611515 -3.35287 86 67 99 
0.136042 -0.463908 -2.84882 64 58 79 
0.597753 -0.77867 -2.40973 71 55 86 
2.08132 0.949401 -5.58573 138 127 138 
-0.738813 -0.571094 -2.56401 72 60 75 
1.64971 -0.0791402 -5.15038 59 49 66 
-0.824932 0.47669 -2.68675 116 95 120 
0.252433 -0.522306 -2.97369 61 55 70 
-0.708759 -0.123909 -2.67375 130 110 133 
0.900264 0.651077 -3.80575 78 61 101 
1.00215 -0.606361 -3.73624 70 56 82 
-0.745102 -0.8559 -2.48012 86 67 72 
0.808885 0.254993 -3.71827 26 24 53 
1.53985 -0.721195 -4.27461 81 70 113 
-0.778742 -0.832372 -2.43553 128 111 131 
-0.847377 -0.8218 -2.38367 123 107 130 
-0.832123 0.0687445 -2.58772 73 66 87 
-0.312093 0.577987 -3.19025 138 116 139 
0.900153 0.626313 -3.81692 44 38 81 
-0.892985 0.0661081 -2.53336 62 51 68 
0.560272 -0.521455 -3.2921 60 48 70 
1.67317 0.817141 -5.17018 109 95 123 
0.0894534 -0.150777 -3.22723 25 22 56 
0.537212 0.265116 -3.4522 82 68 110 
-0.69949 -0.832278 -2.55852 53 44 49 
-0.907726 0.818479 -2.66237 83 65 74 
-0.586062 -0.849497 -2.65089 131 113 138 
-0.858163 -0.102143 -2.5362 138 114 127 
1.10769 0.530128 -4.15383 25 23 49 
2.01641 0.701261 -5.47705 118 101 123 
1.45508 -0.707997 -4.18548 44 38 44 
1.46999 -0.142433 -4.7372 48 43 78 
0.522187 -0.0899816 -3.67043 14 15 32 
0.701853 0.404057 -3.74889 21 21 49 
0.152002 -0.86341 -2.78172 62 53 74 
0.984 0.796377 -3.88187 79 66 113 
-0.674785 0.903085 -2.90854 138 113 131 
-0.852263 0.121394 -2.58087 125 113 134 
-0.483933 0.620654 -3.03764 65 55 68 
1.49635 -0.0173089 -4.38077 31 31 76 
0.397561 0.275817 -3.31036 84 70 110 
0.69927 0.404589 -3.75168 20 20 48 
0.386943 -0.542931 -3.10197 92 78 125 
-0.806312 -0.0979665 -2.56585 135 120 143 
0.8985 -0.847818 -2.33606 130 109 157 
2.40189 0.471408 -5.84333 104 87 106 
-0.642159 -0.375481 -2.67163 107 94 122 
0.735642 -0.552812 -3.44299 62 53 96 
-0.0351182 -0.478162 -2.68027 92 75 127 
0.100541 -0.798107 -2.76013 83 72 122 
2.44259 -1.6297 -5.88541 118 101 115 
0.114575 -0.17184 -3.24039 18 16 37 
-0.227934 0.604946 -3.28479 81 67 94 
2.16565 0.421075 -5.64399 128 106 125 
0.832579 -0.365902 -3.81813 83 72 126 
-0.770809 -0.565328 -2.53365 87 69 86 
-0.435217 1.13121 -3.17544 74 60 82 
-0.526186 -0.591072 -2.766 76 66 72 
1.7877 0.48176 -5.27839 63 49 62 
1.58224 1.39813 -5.10197 73 63 76 
-0.378996 0.321903 -3.10158 142 118 139 
-0.626026 0.204718 -2.82746 49 42 63 
-0.474565 -0.00357096 -2.93894 140 115 131 
0.91947 -0.449231 -3.89147 56 50 95 
-0.847158 0.189505 -2.59019 116 102 125 
0.903284 0.555221 -3.74316 108 91 140 
-0.503707 -0.359011 -2.85285 127 105 121 
-0.541745 -0.276081 -2.82258 75 65 93 
2.4884 -1.01728 -6.03101 208 166 147 
1.73101 -0.0364576 -5.2454 119 96 117 
-0.668141 0.648137 -2.86144 55 49 69 
0.929073 -0.588861 -2.38186 70 63 104 
-0.311718 1.02343 -3.26389 136 117 138 
0.137681 -0.872308 -2.78825 49 43 60 
0.130981 0.162868 -3.33699 38 32 47 
-0.786153 0.78366 -2.779 116 103 133 
-0.606137 -0.826404 -2.64268 65 52 71 
-0.467161 -0.762504 -2.81521 138 111 118 
0.173551 -0.509226 -2.89131 100 82 135 
-0.437952 -0.475695 -2.88352 119 104 134 
1.33545 -0.256541 -4.48097 22 22 52 
-0.444526 0.633237 -3.06095 79 68 84 
0.717825 -0.543329 -3.44709 156 120 124 
2.03796 -0.794407 -5.48982 102 78 92 
0.437259 0.634267 -3.37128 82 69 123 
-0.0382047 -0.820772 -2.60044 52 44 62 
-0.676672 -0.112299 -2.70343 121 103 124 
-0.478611 -0.780623 -2.79294 121 99 125 
-0.311905 0.316695 -3.1457 80 69 98 
-0.0423709 -0.655894 -2.63057 23 27 40 
2.46587 0.4789 -5.98116 104 85 101 
0.125412 -0.748873 -2.78963 67 63 107 
0.938888 0.714831 -3.79411 83 70 122 
0.143035 -0.857613 -2.78712 38 35 50 
2.46565 0.0400644 -6.02819 119 86 100 
-0.791995 0.648241 -2.74983 60 45 66 
0.956012 0.84777 -3.87621 83 68 121 
-0.192212 0.780577 -3.33204 75 64 96 
-0.216606 0.905438 -3.31709 99 79 103 
-0.674794 -0.13426 -2.72042 102 88 115 
-0.677795 -0.840434 -2.57067 134 108 110 
0.100565 -0.797456 -2.75851 82 71 119 
1.42187 -0.481084 -4.47747 70 59 99 
1.02366 1.4183 -4.55732 83 70 86 
0.615094 -0.195453 -3.46569 105 113 133 
0.122548 -0.85274 -2.77973 75 64 116 
0.645362 -0.551003 -3.35371 76 62 85 
0.336712 -0.534726 -3.0462 93 77 126 
1.36859 0.776907 -4.84669 80 67 81 
1.79017 -0.432166 -5.28951 58 48 61 
-0.384198 0.632854 -3.13744 87 73 96 
-0.514036 -0.405924 -2.81962 97 72 87 
-0.590579 -0.856169 -2.65005 126 107 134 
0.110065 -0.798862 -2.76692 84 67 120 
-0.309966 0.601767 -3.18582 79 67 87 
