ply
format ascii 1.0
element face 0
property list uchar int vertex_indices
element vertex 1237
property float x
property float y
property float z
property uchar diffuse_red
property uchar diffuse_green
property uchar diffuse_blue
end_header
1.8159 0.740448 -5.12044 101 77 105 
1.94947 0.64998 -5.13805 89 70 97 
1.59061 -0.591821 -5.01047 53 43 51 
1.73181 0.000292024 -5.06282 43 39 52 
-10.0831 3.24492 -6.8597 250 207 191 
-10.6299 3.57128 -6.70105 156 116 121 
1.42454 0.547794 -5.04457 113 101 131 
-1.5638 -0.0636774 -4.52038 92 73 93 
1.09885 -0.7505 -3.66732 69 58 104 
2.22328 -0.606816 -5.1136 85 61 70 
1.30988 1.03763 -5.05141 94 80 107 
2.15703 -0.0503497 -5.13539 84 70 92 
0.540965 1.05409 -4.53877 73 60 99 
-1.18125 1.32655 -4.66941 136 114 128 
-11.277 4.21934 -6.47013 240 194 177 
1.44787 1.15745 -5.07963 99 82 115 
1.64604 -1.03679 -4.91667 37 34 35 
1.37069 0.701488 -5.0511 85 67 81 
-12.5564 0.814271 -5.75149 168 127 122 
-9.89527 0.734224 -6.84621 136 106 124 
1.08882 -0.895375 -3.59729 110 88 126 
1.85143 -0.13711 -5.08212 86 69 82 
1.85769 -0.747376 -5.05745 92 79 93 
2.15272 -0.87979 -5.09044 89 70 74 
2.09 0.124933 -5.12936 94 75 96 
1.60936 0.443703 -5.06931 117 102 129 
-1.96145 0.347765 -4.49021 102 81 105 
2.15834 0.653447 -5.16885 89 67 88 
-11.434 -0.879956 -6.0407 202 168 150 
-11.4754 1.19626 -6.1955 235 189 172 
-11.0917 1.34746 -6.44166 138 97 91 
1.5924 0.533245 -5.08105 117 100 124 
-11.0279 4.49934 -6.58689 179 140 126 
2.21135 -0.474684 -5.12305 124 94 100 
2.25259 0.62861 -5.18759 106 87 104 
-1.69903 0.912656 -4.57432 124 103 128 
2.01829 0.943084 -5.16327 94 75 90 
0.349001 0.308343 -4.57235 37 62 96 
1.8686 -0.65866 -5.05463 56 50 74 
1.80855 -0.159783 -5.06644 84 71 88 
1.54646 -0.885607 -4.98538 23 21 25 
1.77594 -0.0514491 -5.07062 73 54 74 
-10.5119 0.769464 -6.62163 209 169 157 
-10.9702 3.32848 -6.5075 185 140 129 
1.31713 1.02587 -5.05304 116 103 126 
1.62131 0.412464 -5.0693 111 93 115 
-1.57086 1.4937 -4.61214 139 117 135 
1.22159 1.26362 -5.0544 120 100 130 
1.53644 -0.0192329 -5.02758 63 53 73 
-12.4784 -0.448633 -5.69172 153 120 115 
2.22902 0.296657 -5.1694 130 105 121 
1.95647 0.308108 -5.11867 84 71 93 
-13.0051 4.8055 -5.86865 181 130 125 
-12.6285 0.944089 -5.72085 147 114 111 
1.1099 0.83887 -5.00894 50 43 59 
2.08625 -0.0434632 -5.12713 112 88 103 
1.76704 0.315998 -5.09169 112 92 115 
-11.5292 4.02744 -6.37761 238 188 176 
1.52069 -0.483776 -4.56878 75 72 98 
1.53728 -0.129313 -5.03072 65 57 77 
2.2178 -0.465301 -5.13187 116 93 90 
1.64047 1.13873 -5.11389 93 84 104 
2.04505 1.00953 -5.17709 79 66 78 
-12.8001 1.34079 -5.61068 68 86 88 
-12.037 1.17043 -5.98386 175 147 149 
-1.14845 1.39884 -4.68788 128 108 133 
1.83166 0.176718 -5.09663 100 80 93 
1.88346 0.708174 -5.13295 89 69 88 
0.199832 1.27213 -4.52628 54 40 81 
1.59565 -0.99477 -4.93355 55 53 62 
1.95105 -0.494677 -5.07329 72 55 69 
-1.40961 0.781382 -4.60631 131 108 130 
1.32554 -1.04744 -4.44792 58 49 75 
2.17434 -0.677967 -5.09979 100 74 88 
1.00311 -0.458219 -3.4627 145 120 154 
2.13605 0.623193 -5.16587 130 104 126 
2.0363 -0.0006447 -5.1209 122 98 110 
-10.3894 3.08327 -6.78 230 186 173 
2.12885 -0.47031 -5.10865 95 66 76 
0.0804275 -0.231913 -4.4494 122 103 152 
1.93082 -0.49596 -5.06754 71 55 69 
0.00594709 -0.28837 -4.38398 102 86 144 
2.2882 0.12839 -5.16676 104 80 98 
0.293 1.28262 -4.53436 73 62 108 
1.10808 0.974357 -5.02263 94 75 97 
2.12007 0.191079 -5.14388 119 100 117 
1.06227 0.815633 -4.98717 75 62 84 
2.2484 0.81823 -5.18631 117 92 102 
1.28706 0.516038 -5.02471 116 96 121 
1.8153 0.500663 -5.10641 96 76 101 
1.69289 0.456593 -5.08258 120 104 128 
2.16104 -0.451566 -5.11274 56 48 54 
-11.9236 -1.11506 -5.91857 157 142 161 
-9.87109 3.32291 -6.94049 164 136 145 
-1.92519 1.77357 -4.57188 143 120 139 
1.25278 0.95788 -5.05218 96 76 89 
1.04245 -0.662139 -3.5883 54 47 90 
-1.45676 0.892192 -4.59946 127 108 130 
1.81299 -0.858516 -5.03591 88 71 82 
1.82449 0.344705 -5.10187 87 68 87 
1.99987 -0.801029 -5.0662 110 90 101 
1.60069 0.725653 -5.08614 109 93 117 
1.83985 0.169528 -5.103 72 59 76 
1.85953 0.765485 -5.1243 118 95 113 
2.01575 0.0347424 -5.1148 91 76 96 
1.80327 0.68215 -5.12672 119 93 116 
1.89202 -0.152213 -5.09273 102 87 94 
2.24006 -0.34909 -5.13305 89 65 72 
-9.78598 -1.10664 -6.56339 174 162 180 
-1.53047 1.15501 -4.60258 132 113 128 
0.189181 1.24978 -4.52224 61 48 82 
-11.7871 -0.68078 -6.01138 210 168 155 
1.84164 0.127345 -5.09011 90 79 96 
-1.42131 1.31817 -4.63404 139 117 135 
2.07872 -0.138743 -5.13113 84 68 79 
0.867743 -1.00362 -3.4119 99 82 116 
2.25359 -0.799368 -5.11281 85 71 83 
1.94311 -0.807479 -5.06203 96 81 93 
1.56962 0.39382 -5.06449 121 107 131 
-11.9 -1.09083 -5.36235 18 19 14 
1.67535 -0.55937 -5.03463 69 64 68 
1.81475 -1.04107 -4.94537 66 59 69 
1.53623 0.370141 -5.05928 107 90 116 
1.6601 0.260097 -5.07226 114 97 118 
1.91573 -0.484854 -5.07112 83 66 79 
-0.431355 0.804496 -4.5147 58 47 73 
1.58008 0.249232 -5.06132 92 72 91 
1.8971 0.332119 -5.11796 110 89 106 
1.08954 0.742163 -5.01038 94 78 99 
0.727071 0.000571248 -4.5067 50 38 66 
1.36636 -0.602327 -4.49572 42 41 67 
-12.8556 0.0593381 -5.66855 108 80 79 
0.328871 0.167248 -4.60889 40 74 98 
1.62398 1.08982 -5.11348 126 106 126 
1.74453 0.079114 -5.07597 107 89 102 
2.12061 -0.944407 -5.09099 96 79 83 
1.42739 0.871797 -5.06678 104 89 117 
-0.427428 0.70417 -4.51184 58 44 68 
-1.87781 1.7809 -4.58688 139 121 139 
1.75733 -0.00919266 -5.06839 48 38 51 
1.95812 0.119022 -5.11092 91 79 99 
1.79087 0.19635 -5.08788 91 72 92 
0.0445504 0.584652 -4.50853 59 46 80 
1.75799 -0.00146298 -5.06717 69 59 72 
-1.39217 0.622487 -4.59974 95 74 96 
1.81389 0.853983 -5.12885 89 73 97 
2.02948 -0.285859 -5.10638 98 79 95 
2.00149 0.727366 -5.15872 118 94 118 
0.952943 1.19206 -5.0179 100 77 98 
-9.99529 0.918392 -6.68001 220 174 164 
2.27687 -0.504479 -5.13073 115 99 121 
0.620244 0.359332 -4.63558 53 42 72 
1.87357 -0.0583139 -5.08456 111 96 114 
2.15183 -0.932317 -5.0878 115 93 95 
1.91976 -0.0509295 -5.09959 120 103 118 
1.75931 0.276312 -5.08804 98 81 94 
1.67243 -0.461498 -5.04366 60 43 52 
1.10029 1.25397 -5.03067 113 97 128 
-0.367244 -0.332452 -4.28003 120 99 144 
2.09233 -0.112889 -5.1252 79 60 77 
2.10206 -0.448827 -5.11077 100 81 85 
1.73263 -1.02897 -4.93331 76 69 76 
-10.6107 4.51376 -6.73723 161 119 125 
2.21478 -0.856895 -5.10581 90 77 85 
-11.4701 -0.765732 -6.00215 179 144 125 
-9.96833 3.38905 -6.99994 174 138 149 
-12.9112 -0.804294 -5.83747 152 119 118 
1.86999 0.569071 -5.12442 132 106 120 
-12.8548 0.5515 -5.67518 102 77 77 
0.496696 -0.656974 -3.42158 104 85 126 
1.28819 1.12964 -5.05755 98 86 115 
1.63953 -0.697309 -5.02229 96 81 87 
-12.7585 1.97587 -5.78821 126 112 143 
1.62069 0.890596 -5.09768 114 98 126 
-10.6376 4.08135 -6.75444 194 152 140 
1.25759 0.583745 -5.03361 116 95 122 
1.03868 -0.660197 -3.58617 57 51 92 
1.95621 0.051683 -5.10488 110 94 113 
1.93141 0.994823 -5.16153 119 95 107 
-1.29661 0.992442 -4.64634 132 109 130 
2.21712 -0.242877 -5.1396 122 97 111 
-0.203324 -0.274575 -4.39399 131 113 160 
1.05124 -0.717655 -3.60842 61 53 93 
1.90225 -0.862184 -5.06382 74 55 54 
1.82719 0.187357 -5.09501 82 62 76 
1.75285 0.720761 -5.10982 111 95 113 
-10.2803 1.3819 -6.62333 163 121 113 
-11.63 0.135104 -6.41032 194 157 144 
1.03508 -0.652915 -3.58058 55 49 90 
1.27526 0.963908 -5.05274 120 98 123 
-10.4226 3.06718 -6.75323 179 131 121 
2.27792 -0.363213 -5.14203 89 66 72 
2.13913 0.736034 -5.17512 122 95 107 
1.79151 -0.817495 -5.03771 86 72 83 
-0.577195 0.323929 -4.5391 78 64 95 
2.19549 0.510969 -5.18004 136 107 116 
2.23359 0.15427 -5.15705 90 69 79 
2.29739 0.960866 -5.20672 124 102 120 
1.62603 -0.613474 -5.0199 53 38 48 
1.09287 1.17861 -5.02976 116 94 113 
1.07073 -0.880751 -3.59048 60 49 74 
2.16324 -0.893107 -5.08954 79 58 72 
1.83148 0.998626 -5.1327 121 102 121 
-12.2914 -0.544677 -5.78459 97 86 119 
1.65962 -0.536138 -5.02338 37 28 38 
2.22244 -1.03179 -5.01913 96 92 103 
2.13965 0.146636 -5.15077 107 84 106 
1.82602 -0.386297 -5.05893 77 63 85 
2.10454 -0.617423 -5.0956 103 77 90 
2.16712 0.442441 -5.16551 82 67 84 
1.72077 -0.957844 -5.00933 39 34 33 
-12.5474 1.93579 -5.46627 162 148 173 
-1.10841 1.86314 -4.71154 131 106 126 
-0.429296 -0.225073 -4.50031 76 64 125 
1.62891 0.944449 -5.09746 94 78 106 
-11.6494 4.09465 -6.35386 229 184 171 
1.24489 0.0786178 -4.8127 61 49 83 
1.14342 -0.876846 -3.71775 102 81 128 
0.69739 0.0612684 -4.67092 37 36 81 
-1.51308 1.62227 -4.64379 110 92 109 
1.56655 -1.03678 -4.48405 37 36 36 
-11.1333 -0.392252 -6.20657 146 109 100 
1.80343 -0.00190255 -5.07957 100 90 106 
-1.92591 0.297506 -4.49457 134 114 136 
-10.2418 1.65167 -6.67023 227 185 156 
1.55102 0.586552 -5.06749 123 104 124 
2.11172 0.651767 -5.16095 124 96 119 
-13.1789 4.77909 -5.80013 153 119 117 
-11.0758 4.0943 -6.53168 228 182 174 
-10.5758 -0.0992919 -6.49153 205 168 154 
2.18993 -0.726352 -5.10678 97 78 95 
1.505 0.169717 -5.05133 68 59 69 
1.20546 1.18792 -5.05098 122 102 125 
2.09009 0.10031 -5.13178 109 99 121 
1.86372 -0.0525274 -5.09311 113 87 98 
1.45135 1.17516 -5.08845 114 93 120 
1.75552 0.871968 -5.11645 109 99 122 
2.11543 0.499661 -5.15911 138 112 126 
-11.4506 -0.792984 -5.98719 181 142 130 
1.76081 0.279586 -5.08989 91 73 86 
-0.841708 0.0110563 -4.45144 42 37 65 
-2.03485 1.27165 -4.52472 125 100 130 
2.2398 0.489201 -5.18129 139 112 127 
1.33261 1.14452 -5.05826 97 83 105 
1.57681 -0.430629 -5.01754 70 60 76 
1.79037 0.683512 -5.12858 109 87 109 
2.00715 0.210033 -5.12193 109 92 110 
-10.6324 3.4425 -6.66276 195 156 144 
1.90683 -0.915329 -5.0468 78 67 77 
2.06362 0.45975 -5.14476 135 111 129 
1.80289 1.06689 -5.13725 115 98 123 
2.29118 0.94862 -5.21222 123 97 109 
1.96515 0.781956 -5.15031 120 95 114 
1.70757 -0.186324 -5.05048 71 59 79 
-13.0976 3.26801 -5.64868 192 170 175 
0.5253 -0.422433 -4.40688 99 82 130 
-11.4455 1.19704 -6.14435 218 173 162 
1.80375 0.481179 -5.10441 96 75 95 
-1.48977 0.927136 -4.60542 117 97 123 
-0.790203 0.0268311 -4.50455 63 54 103 
1.8724 -0.135021 -5.08443 79 62 75 
1.92722 -0.403037 -5.07269 98 86 106 
1.78592 0.939487 -5.12334 96 79 106 
1.36794 0.595863 -5.04239 122 98 124 
2.09718 -0.0245081 -5.13603 97 83 96 
0.630771 -0.0266532 -4.62079 84 75 131 
-12.9095 4.3581 -5.87193 225 182 165 
2.16685 0.459861 -5.16344 129 108 121 
1.11635 -0.332232 -4.51377 115 97 138 
2.08348 0.0865342 -5.12845 111 94 114 
1.91258 -0.197833 -5.08832 80 61 75 
0.601963 -0.807882 -3.42938 104 78 104 
1.88146 -0.159641 -5.08267 107 89 106 
-0.630813 0.322226 -4.48646 63 54 102 
0.880707 0.562229 -4.78839 69 59 82 
2.07802 0.449726 -5.14841 122 99 114 
1.89992 0.18262 -5.10874 86 68 85 
1.65922 1.0489 -5.1151 113 95 119 
0.28051 1.27206 -4.5365 68 56 99 
0.733531 -0.250295 -4.68329 81 66 117 
-13.1895 5.42405 -5.81762 203 163 150 
1.74995 0.73821 -5.11442 90 71 98 
0.191354 1.27398 -4.52533 55 42 80 
0.948791 0.0571815 -4.74042 54 51 98 
-0.938933 1.29585 -4.71846 140 115 135 
1.25362 0.813372 -5.04129 107 84 109 
1.70377 0.253261 -5.07761 122 105 128 
1.41086 -0.729879 -4.52078 61 54 88 
1.96839 -0.410873 -5.08221 101 87 111 
1.26534 -0.828192 -4.50029 35 34 42 
1.20596 -0.922373 -3.72954 29 28 54 
-12.5959 3.96533 -6.00354 200 175 171 
1.75496 -0.506948 -5.05114 44 33 46 
-12.1632 -0.884892 -5.86934 199 158 150 
-11.3822 -0.22909 -6.14142 193 153 141 
1.20972 1.01783 -5.03811 98 83 107 
-11.1217 -0.794239 -6.40862 185 146 137 
1.04931 -0.676399 -3.60119 48 36 56 
-9.88341 2.41904 -6.87998 167 146 155 
1.96418 -0.704118 -5.07255 107 88 103 
0.954604 -0.0911339 -4.79617 92 70 99 
1.86841 0.0598135 -5.09196 105 89 106 
0.944913 -0.0950757 -4.79308 89 67 99 
1.8645 -0.940993 -5.03631 88 77 90 
-13.0616 3.81931 -5.88902 212 173 159 
1.56027 -0.703385 -5.00333 42 36 42 
1.77889 -0.446719 -5.05521 95 81 87 
0.723933 -0.261856 -4.66942 52 45 90 
-10.7391 1.35845 -6.41443 195 149 136 
1.2687 0.580363 -5.02656 103 84 110 
1.32108 0.909198 -5.04463 94 75 105 
-0.625037 0.505236 -4.46673 44 35 57 
1.70652 -0.0836963 -5.05458 81 72 93 
1.61977 -0.259327 -5.03617 71 59 77 
-10.5418 1.06874 -6.59967 251 208 191 
2.11349 0.787619 -5.17564 102 84 98 
1.32224 0.982876 -5.05596 122 101 128 
1.86766 -0.0908784 -5.08185 97 86 102 
-11.2001 3.02537 -6.3777 234 189 175 
1.54007 0.381741 -5.0561 62 56 87 
1.24859 -0.938809 -3.78841 51 49 79 
-1.49508 0.668683 -4.57336 132 113 136 
-1.23875 1.44183 -4.66526 101 77 102 
-11.1866 2.46546 -6.57239 175 136 126 
-1.75489 0.94377 -4.53176 136 111 131 
1.27387 -1.05497 -4.43537 37 36 46 
1.23917 -0.556397 -3.81994 51 47 82 
-1.5837 1.76532 -4.63873 118 95 109 
-10.8118 3.62462 -6.60701 170 130 121 
0.978304 0.0973434 -4.77483 64 58 107 
0.211042 0.211015 -4.53187 82 89 114 
-1.68642 1.26879 -4.58671 132 113 128 
2.03439 -1.08694 -4.98034 80 72 85 
2.11828 -0.941058 -5.08003 96 79 88 
1.41221 -0.767399 -4.52526 43 40 66 
2.18202 -0.421257 -5.11751 110 87 91 
1.44493 1.15888 -5.07737 97 79 110 
1.15091 -0.888451 -3.71128 49 43 70 
-12.7264 1.0675 -5.79873 162 124 120 
1.92464 -0.0868509 -5.09414 110 98 116 
1.4495 0.837914 -5.07221 128 99 103 
1.2674 -0.937505 -3.83806 42 40 61 
-1.20458 1.08639 -4.61839 125 102 130 
2.09494 -0.705098 -5.09209 114 95 111 
-12.5482 3.93764 -5.9971 196 168 168 
1.47911 -0.71404 -4.54342 31 31 42 
1.50546 0.00647853 -5.03295 48 39 53 
1.45029 -0.716324 -4.53833 54 53 85 
2.18799 -0.494872 -5.11402 105 80 90 
1.56969 -0.537214 -5.00616 44 36 43 
1.20305 -0.680096 -3.97769 45 41 76 
0.145232 1.11118 -4.47613 56 41 79 
1.80637 -0.260449 -5.06164 58 47 63 
0.57295 1.32813 -4.56075 33 26 49 
0.548178 -0.201311 -4.60499 101 83 136 
0.474333 -0.478054 -4.40086 134 115 152 
1.72829 0.54916 -5.10039 84 75 103 
-11.0293 2.13832 -6.47166 185 139 130 
-1.17811 1.45433 -4.69635 129 109 128 
1.86507 -0.940535 -5.03519 89 76 90 
0.888772 1.36425 -5.00323 80 67 80 
-1.83476 1.75332 -4.59222 94 68 95 
2.16271 -0.966836 -5.08218 122 110 115 
-10.5687 2.78701 -6.61583 187 149 144 
-1.9417 0.557628 -4.49774 122 103 128 
2.15988 0.305788 -5.15809 115 95 116 
-10.9447 -0.979187 -6.17015 185 146 137 
2.21521 0.618577 -5.17715 110 91 106 
1.9785 -0.615396 -5.0728 103 90 113 
-12.7507 1.17761 -5.68719 97 74 74 
1.58925 0.0248992 -5.04022 99 83 110 
1.15755 -0.890397 -4.27575 50 43 75 
0.732171 0.408141 -4.76997 41 33 62 
1.7859 -0.316355 -5.06866 97 86 102 
1.99863 0.836325 -5.15526 100 84 98 
-1.84461 -0.106873 -4.46484 137 123 147 
1.64433 0.939066 -5.10051 96 79 107 
2.14256 0.846647 -5.16988 125 101 111 
1.1874 0.991788 -5.03711 112 93 119 
-10.336 2.098 -6.67254 175 125 117 
-10.3427 2.30393 -6.63449 199 157 151 
1.26393 -0.939022 -3.81284 60 57 88 
2.18024 -0.983426 -5.05678 110 104 116 
1.83273 -0.0160552 -5.0805 72 71 88 
1.96882 0.354153 -5.12822 121 92 111 
1.97066 -0.891003 -5.04119 79 62 70 
-1.23971 0.777843 -4.63004 105 83 107 
2.28042 -0.948596 -5.10345 75 61 70 
-13.0092 2.71317 -5.75334 186 150 146 
1.10433 1.29528 -5.03436 133 113 137 
-10.4386 1.04722 -6.57423 226 181 168 
1.68534 0.302685 -5.07945 107 88 104 
2.26676 0.0153109 -5.16075 111 85 98 
0.108855 -0.158652 -4.52477 87 67 94 
-10.7955 3.18629 -6.48588 182 144 139 
2.27499 0.0242581 -5.1636 135 111 121 
2.15159 -0.709962 -5.10568 102 90 106 
0.170313 0.830655 -4.61317 102 80 120 
1.68833 -0.901062 -5.00794 70 54 70 
1.23838 0.477691 -5.01611 55 53 83 
1.71745 -0.124433 -5.06145 94 79 100 
1.26744 0.517651 -5.01898 122 104 125 
1.42396 -0.932983 -4.50701 62 60 88 
1.61717 0.472575 -5.06858 108 96 118 
1.57729 -0.0230951 -5.05066 72 64 72 
1.02246 -0.906891 -3.46349 33 25 49 
2.09125 0.0598273 -5.13277 107 87 106 
-10.3048 2.75845 -6.63378 204 162 156 
1.02527 1.11439 -5.01211 106 81 107 
1.43538 0.942697 -5.0654 126 106 125 
1.09617 1.03609 -4.81895 51 41 86 
-12.651 -0.494339 -5.68351 148 116 111 
1.31275 0.848597 -5.05018 89 80 108 
0.616507 1.03233 -4.5515 43 35 71 
0.0730963 -0.234485 -4.43876 129 108 163 
1.23971 -0.556275 -3.81931 51 47 82 
-1.91531 0.122275 -4.4733 100 78 101 
2.08391 0.0768538 -5.13152 87 73 91 
1.87334 0.767212 -5.12858 119 94 112 
1.69323 0.488309 -5.08085 122 109 132 
2.00757 0.110393 -5.12286 95 82 98 
2.11779 0.198933 -5.14184 95 75 95 
1.80365 0.0743945 -5.0907 111 88 106 
2.26285 0.657406 -5.19085 92 70 92 
1.53528 -1.06146 -4.32557 79 69 59 
-12.0851 -1.00183 -5.40821 25 20 19 
2.22096 -0.0889667 -5.14793 80 66 84 
1.53583 -0.473717 -4.56873 59 54 79 
0.929245 1.30077 -4.99738 80 57 68 
1.19328 -0.642646 -3.7875 52 43 69 
1.15413 -0.916241 -4.47389 23 22 24 
1.82983 -0.158766 -5.07314 88 67 88 
1.78403 0.651879 -5.10886 92 75 103 
1.5272 1.03794 -5.08773 115 101 123 
1.27092 1.09593 -5.04903 130 114 133 
2.26329 -0.687752 -5.11514 114 93 98 
2.12438 0.459046 -5.15286 99 74 93 
0.7481 -1.01371 -3.37332 93 71 66 
1.86179 0.30981 -5.10693 110 90 107 
1.36102 0.907876 -5.05336 121 101 124 
0.352102 0.0225044 -4.42643 73 92 107 
1.83475 -0.0120037 -5.08386 78 72 93 
1.97069 -0.966048 -5.05227 59 49 51 
-10.0842 3.50127 -6.86195 249 206 187 
0.906579 1.26126 -4.99802 69 56 70 
1.3304 -0.421034 -4.54685 85 75 97 
2.13423 -0.61169 -5.09812 77 56 66 
0.964168 -0.0961705 -4.79894 93 70 100 
1.89948 -0.352725 -5.08395 116 92 96 
-10.6766 2.69189 -6.61364 194 153 144 
2.14759 -0.200001 -5.12519 110 74 86 
-0.363257 0.0999214 -4.50684 52 42 86 
1.89909 0.583776 -5.11921 106 82 107 
1.1967 -0.692873 -4.4887 24 24 28 
2.03571 -0.307095 -5.10279 116 100 119 
1.82528 -0.509946 -5.05863 66 50 61 
1.8982 0.610726 -5.1284 111 82 106 
-10.6072 3.51745 -6.72683 185 148 144 
2.01697 0.0443554 -5.11944 116 99 121 
1.70975 -1.01001 -4.94719 79 72 77 
2.30381 -1.03351 -5.03691 107 99 104 
-10.5988 4.82049 -6.78045 188 147 145 
-11.0655 3.47371 -6.49604 214 174 164 
-12.0975 -0.845447 -5.89241 181 141 130 
-12.4273 -0.661735 -5.74627 205 167 155 
1.77887 1.06 -5.12943 90 75 102 
1.35236 1.06293 -5.05634 114 96 121 
1.97171 -0.729472 -5.0677 102 84 97 
1.85304 -0.45225 -5.07272 79 62 72 
0.884844 1.29425 -4.99469 72 64 75 
1.12169 0.878495 -5.03691 107 88 105 
2.25691 -0.789144 -5.11551 109 96 115 
1.36469 -0.78945 -4.51696 26 26 39 
2.15615 0.205217 -5.15101 82 66 83 
1.43592 0.40387 -5.04063 103 76 86 
2.07312 0.027659 -5.12835 92 72 87 
1.51005 0.399555 -5.05103 120 105 131 
0.531015 -0.179103 -4.59567 75 66 116 
0.324158 0.167768 -4.60672 44 74 100 
2.28951 0.14733 -5.174 128 105 114 
1.37638 1.032 -5.06744 100 87 111 
1.92628 -0.415454 -5.07448 73 63 77 
-1.83938 0.127535 -4.48412 99 78 101 
-1.54193 1.09206 -4.59145 125 104 127 
0.369229 -0.0769293 -4.49737 32 30 42 
1.90358 0.789822 -5.13575 107 86 108 
2.17145 0.118486 -5.14928 114 95 112 
-12.6103 2.17259 -5.913 204 160 149 
0.0936697 -0.222914 -4.45263 67 55 107 
2.2933 0.104575 -5.17176 127 108 123 
2.11814 -0.484795 -5.10492 125 100 112 
1.94721 -0.844865 -5.06037 81 75 84 
2.0309 -0.624142 -5.07748 85 63 74 
1.92387 0.757079 -5.13815 112 85 105 
0.939305 0.431745 -4.75504 72 64 111 
2.04674 -0.528286 -5.09065 109 85 95 
1.60928 -0.0691689 -5.03853 62 53 73 
1.09193 -0.74407 -3.6611 71 64 105 
1.01261 -0.861411 -3.51668 104 84 126 
-11.7245 4.11832 -6.35331 210 162 149 
2.13089 -0.0402261 -5.13474 126 104 116 
1.01408 -1.01812 -3.44526 87 73 74 
-12.8283 3.06431 -5.81462 217 177 165 
2.13825 0.822837 -5.1714 115 88 99 
2.18673 0.366522 -5.16808 115 93 111 
-13.13 3.1829 -5.7077 154 116 122 
1.03562 -0.652214 -3.58117 54 48 90 
2.04115 -0.86017 -5.0814 77 64 67 
1.57321 0.876347 -5.09205 77 65 92 
2.29216 0.50318 -5.19742 118 93 103 
1.38617 0.622022 -5.06349 123 101 125 
2.00943 -0.202892 -5.10733 72 59 77 
-11.9983 1.90288 -5.99655 207 168 156 
1.3419 0.789421 -5.04964 122 103 127 
1.90263 1.05864 -5.15053 112 97 125 
1.99715 -0.344832 -5.09845 75 63 81 
2.01768 0.923376 -5.1608 123 97 111 
2.23833 0.673552 -5.19886 117 92 102 
1.5227 -0.261783 -5.01676 53 40 57 
1.43628 0.497652 -5.04825 119 100 126 
1.96599 0.457593 -5.12958 107 89 112 
1.329 -0.508969 -4.53429 93 81 123 
2.09532 0.226003 -5.13852 125 107 126 
1.52589 -0.16204 -5.02313 73 65 83 
1.79355 -0.448205 -5.05449 98 78 90 
-10.6027 -1.03212 -6.38546 150 118 113 
2.06418 -0.135567 -5.13011 81 71 76 
1.90572 0.0131064 -5.09594 96 83 109 
2.11382 -0.0820125 -5.1314 108 89 107 
2.16923 -0.169969 -5.15523 112 92 105 
2.10832 0.29396 -5.14697 96 84 104 
1.66122 0.923146 -5.10326 86 67 94 
2.28577 -0.690607 -5.11828 94 77 85 
1.59279 0.314528 -5.06038 107 93 117 
1.31668 0.844881 -5.0467 90 80 110 
2.14293 0.415775 -5.15797 92 71 91 
1.89256 0.497338 -5.1197 127 109 126 
1.67229 -0.0497899 -5.05451 79 66 89 
2.2841 -1.0401 -5.02029 51 51 50 
1.91012 -0.972218 -5.0258 100 89 99 
1.57957 -0.43967 -5.02674 45 39 51 
-12.7703 2.32303 -5.64731 106 101 132 
2.2658 -0.400662 -5.13661 115 85 91 
-1.87219 0.805581 -4.52664 118 94 114 
1.95662 -1.03287 -4.9709 76 73 79 
-12.2627 2.35519 -5.97564 131 112 119 
1.64162 -0.825958 -4.99336 45 37 41 
1.92629 0.275003 -5.10969 105 84 103 
1.37457 -0.831533 -4.51481 64 58 89 
2.00433 -0.841169 -5.06763 90 76 82 
-9.97108 -0.699651 -6.62147 235 191 175 
1.77025 0.372284 -5.10535 61 49 63 
2.03068 0.124072 -5.1225 114 99 118 
0.975502 0.0920882 -4.76488 47 42 93 
1.62914 0.481277 -5.07216 109 100 123 
1.7518 0.904682 -5.11609 113 95 119 
2.23313 -0.841488 -5.10887 84 67 70 
1.2097 1.07555 -5.03381 126 107 126 
1.70919 -1.00628 -4.94989 80 71 77 
1.20336 0.841395 -5.03394 104 89 103 
1.65793 -0.300981 -5.03821 73 60 75 
1.69539 -0.0542713 -5.05478 90 79 96 
1.52975 -1.0062 -4.48169 36 37 47 
1.14844 0.861284 -5.02232 97 81 104 
1.54266 0.920725 -5.08402 105 91 114 
1.9887 -0.0326409 -5.12022 96 74 94 
1.0365 0.624716 -4.73212 56 43 65 
-1.56051 1.30748 -4.6408 137 111 129 
-1.36638 0.543187 -4.61344 134 109 119 
-0.656187 0.284056 -4.44844 38 32 68 
0.823564 -0.105656 -4.75594 78 66 118 
1.61613 0.747627 -5.08696 113 91 110 
1.50601 -0.968091 -4.4802 29 28 45 
1.42979 0.923395 -5.0607 114 94 119 
1.01499 0.068793 -4.79739 73 66 121 
1.89977 0.158641 -5.10563 117 95 109 
2.13096 0.45364 -5.15905 132 109 125 
1.6242 0.263017 -5.0662 100 83 110 
1.88973 0.976392 -5.13918 84 68 90 
1.50787 -0.0313843 -5.02848 55 43 57 
2.02258 -0.823778 -5.06466 75 56 65 
2.16144 0.100012 -5.14495 113 94 113 
1.84185 -1.05487 -4.94995 57 50 52 
1.63996 0.185888 -5.06543 87 68 85 
1.32557 1.01213 -5.05821 86 77 104 
1.90409 0.150787 -5.10566 108 87 105 
-1.844 1.37071 -4.57978 139 114 128 
1.84339 -0.487502 -5.06735 58 46 56 
-12.113 1.05099 -6.12264 110 85 95 
-11.811 -0.547007 -5.9639 124 114 145 
-10.8391 -0.356647 -6.34769 200 165 152 
1.90683 0.720806 -5.1405 95 76 93 
2.05421 -0.595776 -5.08662 95 68 80 
1.20343 0.986219 -5.03612 121 102 121 
-1.71873 0.0347794 -4.50929 122 105 127 
1.18977 -0.746004 -4.06127 48 44 78 
-0.633271 0.505077 -4.4577 51 40 63 
0.33039 -0.0119896 -4.39986 54 71 93 
2.15303 -0.484044 -5.11114 113 89 102 
2.27941 -0.94394 -5.10828 75 60 68 
1.70892 -1.01689 -4.94388 58 44 53 
0.909105 -0.235149 -4.71165 57 46 99 
1.88633 0.584411 -5.13374 113 91 117 
2.22625 0.0188881 -5.15044 104 80 94 
2.2619 0.931399 -5.20362 91 69 89 
-11.1594 -1.34355 -5.57648 19 17 17 
1.83182 -0.372329 -5.06168 84 71 93 
0.312632 -0.0766637 -4.46626 28 28 42 
2.08053 0.228478 -5.13724 96 78 95 
1.88247 0.491894 -5.11538 100 78 102 
2.23701 0.0450288 -5.15838 118 97 112 
1.35971 -0.394105 -4.54919 28 25 27 
2.04241 0.0620474 -5.12081 101 87 107 
1.57603 -0.525952 -5.01289 56 43 51 
2.28877 -0.403706 -5.13896 103 72 78 
1.33923 0.54908 -5.02979 79 67 95 
2.29306 -0.885865 -5.10644 65 50 61 
2.26445 0.784311 -5.19184 104 83 96 
1.59927 -1.0221 -4.91842 55 52 63 
1.72263 0.825589 -5.11523 123 101 120 
-11.0578 -1.33029 -5.98898 129 117 137 
2.2387 0.0408805 -5.1569 126 107 123 
1.8071 0.952578 -5.1286 109 91 115 
1.79636 0.907268 -5.12465 97 79 101 
1.93147 -0.727716 -5.0634 105 87 96 
-11.1009 4.9086 -6.5435 191 146 142 
0.0389102 -0.249549 -4.43922 107 88 141 
-10.8832 4.0529 -6.62403 197 160 157 
1.47333 1.14297 -5.08631 103 88 114 
-11.2369 2.62739 -6.39746 236 193 178 
2.11454 -0.444395 -5.10758 104 78 88 
1.31202 -0.698845 -4.51177 34 33 41 
1.61615 0.469746 -5.0616 93 86 102 
0.755005 1.15559 -4.66298 67 53 99 
1.02408 0.642165 -4.98509 59 46 67 
1.80217 -0.241049 -5.06369 79 64 79 
2.03112 -0.817628 -5.06905 91 75 84 
1.52368 1.20982 -5.10051 120 97 112 
1.69934 0.454974 -5.07941 113 98 123 
1.95449 -0.159743 -5.10329 110 91 100 
1.71137 1.12043 -5.1275 116 97 115 
1.99976 0.353929 -5.13945 102 79 103 
1.89596 -0.110475 -5.08957 98 86 106 
1.53386 0.280926 -4.79479 52 47 82 
1.37443 -0.834679 -4.517 63 57 92 
1.22563 -0.873406 -3.84211 56 48 88 
2.05124 0.412014 -5.14109 102 82 101 
1.68722 -0.390041 -5.0346 88 76 96 
1.88355 -0.597701 -5.05455 89 81 104 
2.04267 -0.836588 -5.07779 85 68 78 
1.16742 -0.786337 -3.76267 66 58 97 
1.92666 0.250621 -5.11212 103 84 105 
-0.829326 0.119608 -4.42511 28 28 65 
2.26835 0.924019 -5.20475 99 80 108 
1.89162 -0.830667 -5.05959 57 47 50 
2.12795 -0.404481 -5.10696 75 57 64 
2.1047 -0.399637 -5.10369 107 80 90 
-0.325558 -0.516324 -4.21202 79 67 103 
1.70847 -0.561788 -5.04142 74 65 75 
2.04258 -0.795354 -5.07306 98 77 88 
0.500077 -0.781075 -3.41751 104 87 128 
2.08119 0.619027 -5.1549 122 95 117 
1.74293 -0.231768 -5.05393 74 59 73 
0.119913 -0.475824 -4.33658 130 109 145 
2.14954 0.1836 -5.15474 92 73 92 
1.37507 -0.777971 -4.51731 47 48 67 
2.1498 -0.567405 -5.10453 94 75 86 
1.53595 0.146524 -5.0401 72 63 82 
2.03497 0.989213 -5.17329 126 102 111 
1.77894 0.679356 -5.10878 119 100 118 
-10.8034 3.49123 -6.58217 192 149 140 
1.79607 0.924425 -5.12399 120 101 125 
2.22546 -0.726074 -5.10647 102 76 87 
1.69958 -0.958418 -5.00664 46 42 37 
1.67072 0.848769 -5.10546 96 83 107 
-10.4023 3.03913 -6.71183 207 168 156 
1.3255 0.617288 -5.0313 115 100 126 
1.11526 -0.894149 -3.62974 111 87 127 
2.2233 0.500894 -5.17952 108 84 97 
1.26537 -1.02168 -3.8397 29 31 45 
1.88288 0.69947 -5.13075 94 81 97 
1.22411 0.557153 -5.0084 108 94 123 
1.68217 0.276565 -5.08395 116 94 109 
1.83804 -0.872568 -5.0438 92 76 84 
2.00275 0.0213219 -5.11643 116 90 106 
2.26293 -0.595097 -5.1222 113 82 89 
1.46739 -0.946863 -4.47864 94 82 123 
1.19276 0.967746 -5.03301 115 95 120 
1.60329 -0.291372 -5.03095 95 83 102 
-0.7942 -0.285231 -4.28697 83 76 124 
-1.07907 0.860922 -4.67126 128 103 117 
1.87419 0.926049 -5.13515 83 65 88 
-1.87966 1.46114 -4.57292 122 99 124 
1.34642 0.933528 -5.05576 87 70 104 
2.16597 -0.496688 -5.11114 123 93 102 
2.06859 -0.585292 -5.08044 116 93 111 
-11.1316 -0.944327 -6.12493 178 140 135 
1.47895 -0.761625 -4.54622 35 31 49 
-12.7161 1.88803 -5.71308 128 121 154 
-1.85929 0.892759 -4.55205 128 106 130 
2.16265 0.345578 -5.15802 109 82 102 
2.10091 0.843574 -5.16856 120 90 102 
1.89403 0.0405039 -5.08929 106 93 115 
-0.50158 0.0942461 -4.516 88 69 122 
1.85743 -0.425781 -5.06468 83 72 90 
1.8481 0.945538 -5.13302 114 93 117 
2.28208 -0.47953 -5.15077 129 108 123 
-11.068 2.4481 -6.43117 181 139 139 
0.755862 -1.02131 -3.38416 93 72 73 
2.1506 -0.118895 -5.13294 111 89 104 
-10.5844 -1.38627 -6.29091 139 124 141 
1.57048 0.317616 -5.0525 103 89 119 
-0.156722 -0.461155 -4.31192 120 99 146 
1.84029 -0.437779 -5.06482 46 38 48 
2.15782 0.21001 -5.15134 88 69 86 
1.93046 -0.934273 -5.05095 90 78 96 
2.28409 -0.911826 -5.10847 86 64 69 
2.04952 0.136477 -5.13032 95 76 95 
2.01805 0.0867026 -5.12039 119 100 119 
1.74353 0.975396 -5.11886 125 107 130 
-0.355861 0.0901043 -4.51234 66 59 101 
-9.86603 4.78215 -7.07556 238 192 175 
1.46279 -0.880436 -4.52926 73 61 102 
-12.7089 3.95476 -5.9131 244 201 178 
2.29838 0.884805 -5.20188 97 75 99 
1.89318 0.748337 -5.13513 120 98 117 
-1.84961 -0.20939 -4.4642 135 119 145 
1.03368 -0.603297 -3.58262 44 41 77 
1.72804 -0.772668 -5.01843 74 68 85 
-1.06415 1.41298 -4.69802 94 73 99 
2.25237 0.760093 -5.19188 114 92 107 
1.63371 -0.0781031 -5.04051 86 77 98 
-11.964 2.3308 -6.20593 162 132 150 
1.95445 -1.05504 -4.96554 57 51 53 
2.16804 -0.969475 -5.09275 116 103 109 
1.61649 -0.350305 -5.02671 54 46 61 
1.99226 -0.645341 -5.07438 96 85 103 
1.91835 1.00885 -5.15847 77 65 85 
1.94456 -0.0831603 -5.09463 89 76 100 
1.90874 0.996175 -5.16101 123 99 108 
2.13193 -0.61313 -5.09868 78 57 69 
-10.4816 2.95772 -6.66882 202 166 156 
1.46952 1.11229 -5.09112 132 111 133 
-10.4119 -0.934909 -6.44802 161 118 114 
0.245238 -0.323827 -4.36561 115 97 138 
1.8727 0.218756 -5.09642 113 98 119 
1.83383 0.918207 -5.12936 91 74 96 
1.82583 0.553745 -5.11141 111 94 111 
1.73334 0.779536 -5.11619 103 84 107 
1.16762 -0.48008 -3.69598 46 40 79 
1.16023 -0.992713 -3.65656 56 51 82 
2.08245 0.384711 -5.14688 99 80 97 
1.57004 -1.02654 -4.91419 49 48 50 
1.84723 -0.314399 -5.06743 95 84 104 
1.73613 1.01694 -5.12918 93 80 103 
0.733449 -0.222717 -4.68677 79 67 119 
-9.93429 3.5743 -7.03664 231 189 161 
0.868783 0.188484 -4.78265 90 78 130 
1.80556 -0.424827 -5.05601 84 72 92 
2.24906 -0.118282 -5.15416 98 75 89 
0.331785 -0.37606 -4.39754 100 75 105 
1.58546 0.0505687 -5.04996 106 90 108 
1.96017 -0.865191 -5.06187 99 80 87 
-1.92452 -0.34473 -4.44636 129 117 139 
1.74465 0.351473 -5.09425 105 90 111 
2.01936 0.295921 -5.13583 100 88 108 
2.19766 -0.419806 -5.11854 115 90 94 
0.803552 -0.828313 -3.47319 125 102 134 
1.7396 -0.785387 -5.02506 77 69 83 
1.47207 -0.382209 -4.56664 84 75 118 
1.35863 0.683615 -5.04753 122 104 123 
-1.79826 1.45987 -4.57431 115 95 118 
0.323021 0.119422 -4.63513 22 33 61 
1.62573 -0.00766196 -5.04743 107 92 118 
-1.33446 1.66797 -4.66405 137 110 123 
0.942849 0.242967 -4.80624 81 63 93 
1.96015 -0.249852 -5.09403 85 67 84 
2.21442 0.552421 -5.17857 121 95 108 
1.50469 -0.0615229 -5.02467 56 47 60 
1.76831 0.352412 -5.09256 111 90 112 
-0.40145 0.664417 -4.53538 82 68 114 
2.192 -0.160102 -5.1502 68 58 64 
-11.0894 3.7676 -6.46094 189 150 146 
1.65467 1.14841 -5.115 88 72 102 
1.26655 0.869518 -5.04263 117 94 112 
1.68837 -0.183783 -5.0496 91 78 96 
-1.74784 0.945783 -4.52806 135 110 130 
2.12544 0.073132 -5.13637 98 80 97 
1.56497 -0.0738786 -5.02547 52 41 57 
1.57121 0.958902 -5.09389 96 84 114 
1.30449 -0.826349 -4.50523 59 47 85 
-11.2644 3.8045 -6.48037 198 156 147 
-10.7399 0.290638 -6.37396 215 172 159 
-10.6905 0.0468391 -6.49582 233 184 168 
-10.4088 3.94434 -6.7765 187 139 128 
2.14556 0.113254 -5.14685 93 79 98 
0.823708 0.287167 -4.77448 63 51 97 
1.60385 0.881243 -5.09303 88 73 103 
1.44722 -0.7898 -4.53358 41 40 45 
1.77576 0.344696 -5.11115 84 68 88 
1.60021 -0.0459874 -5.04628 72 56 71 
2.15141 0.368208 -5.1523 110 86 98 
1.95019 -0.394744 -5.08195 82 70 85 
-13.0471 3.35323 -5.76408 177 140 140 
1.91147 0.992145 -5.16192 121 95 106 
0.203611 -0.92239 -3.32079 94 76 119 
1.84675 -0.388719 -5.06391 81 68 90 
1.84649 -0.503438 -5.06466 63 45 58 
1.07763 1.14616 -5.02126 115 99 130 
2.14783 -0.125494 -5.12994 79 59 72 
2.1984 0.389184 -5.16926 113 95 112 
-11.7641 4.94071 -6.32842 223 176 164 
2.10384 0.100928 -5.137 93 80 98 
1.98704 -0.247366 -5.10004 79 63 80 
1.06975 0.696075 -5.00663 103 77 95 
1.63761 -0.0956403 -5.04803 82 71 91 
1.27008 -0.919531 -3.81549 65 57 98 
2.02314 -1.04038 -4.97836 49 46 48 
-0.415135 0.777833 -4.53449 72 58 100 
2.11386 -0.708294 -5.09258 104 87 102 
1.69398 0.300357 -5.07902 116 96 118 
-13.1276 3.0885 -5.69905 154 115 119 
0.838674 -0.381683 -4.47321 125 107 144 
1.63214 0.421068 -5.07256 118 105 127 
2.07637 -0.595384 -5.08846 85 61 68 
1.99149 0.194329 -5.12121 113 95 115 
1.45001 0.903511 -5.07223 84 74 101 
1.26282 -1.00315 -3.80288 43 41 71 
0.938091 0.554248 -4.8013 63 53 79 
1.00895 1.15978 -5.00951 91 77 102 
1.32465 -1.04056 -4.44241 63 54 80 
1.05707 -0.713479 -3.61551 58 52 93 
1.87394 0.100738 -5.09416 75 64 80 
1.79904 0.554615 -5.10434 85 73 103 
1.70822 -0.045695 -5.05694 92 73 91 
1.81495 -0.835428 -5.03155 55 45 64 
1.64917 0.843866 -5.10301 66 58 82 
2.23125 -0.069321 -5.15051 97 78 97 
2.20357 -0.608141 -5.11072 108 85 94 
0.758958 0.629673 -4.76131 37 36 71 
2.18472 -0.954824 -5.08896 78 62 69 
2.07692 -0.0491432 -5.12742 104 89 106 
1.93258 -0.975506 -5.0194 98 88 102 
-11.0622 3.74163 -6.54755 185 146 147 
1.26046 -0.528799 -4.46028 63 55 96 
1.0925 1.03391 -5.01878 81 62 79 
-11.7499 1.20008 -6.0651 191 151 134 
0.0715613 -0.329453 -4.36645 117 97 139 
2.06837 0.720866 -5.15912 100 75 95 
1.21751 -0.387955 -4.52492 74 65 101 
1.31405 0.613622 -5.02464 120 99 120 
1.80952 -1.02898 -4.95518 59 57 57 
1.56458 -0.175615 -5.02041 63 53 67 
1.86564 -0.771515 -5.04907 68 56 73 
1.77972 0.900754 -5.12704 116 94 123 
1.12837 -0.92785 -3.63005 43 42 66 
-12.6436 4.26862 -5.98447 232 187 167 
1.85265 0.12006 -5.09038 106 92 112 
1.60341 0.318141 -5.06913 78 65 95 
1.84917 -0.525733 -5.06241 63 46 57 
2.04115 -0.540745 -5.08847 86 65 75 
-12.9352 2.63446 -5.74612 183 145 137 
2.2646 0.3555 -5.17839 57 46 62 
-10.1973 1.26041 -6.6687 204 164 152 
0.773209 0.697979 -4.7757 66 55 87 
1.49013 0.403524 -5.04782 93 78 105 
2.27326 0.18755 -5.1682 122 100 124 
1.64056 0.447751 -5.07291 86 77 103 
1.58621 -0.665809 -5.00819 72 61 69 
1.98551 -0.95785 -5.05681 79 65 66 
0.827656 -0.395277 -4.46329 127 107 150 
0.11439 0.841486 -4.57976 87 73 114 
1.49495 0.93911 -5.07704 116 97 120 
2.13343 0.644502 -5.16456 120 93 114 
2.29496 0.0164562 -5.16588 110 83 93 
1.09536 -0.771054 -3.66559 68 62 103 
1.62436 0.715839 -5.08485 92 76 100 
-1.94777 -0.432895 -4.45053 137 118 138 
1.30825 -0.883999 -4.49787 61 48 79 
1.2529 0.663522 -5.02471 88 77 109 
1.71063 -0.0585772 -5.05715 73 57 77 
2.19384 -0.154804 -5.14435 60 47 55 
2.05228 -0.402248 -5.09962 112 93 110 
2.27961 0.672372 -5.19647 94 71 82 
2.25181 -0.614614 -5.12297 103 75 85 
2.18615 -0.651214 -5.10436 99 78 87 
-0.363922 0.663246 -4.58424 63 47 84 
-11.0485 3.0511 -6.49123 225 184 172 
1.17266 -0.489406 -4.51277 81 71 117 
1.34784 0.922185 -5.05281 117 99 127 
1.0717 -0.630665 -3.63755 50 40 63 
1.17834 -0.730854 -4.48786 39 36 64 
1.13574 -0.720341 -4.33202 20 20 22 
1.50424 0.641268 -5.06245 112 98 122 
2.07474 0.265089 -5.1423 132 104 104 
1.16502 -1.00423 -3.66587 45 44 70 
0.358362 0.292378 -4.56871 40 61 88 
2.1567 0.479939 -5.16611 98 79 102 
1.10745 1.22226 -5.03402 114 101 132 
1.59598 -0.865688 -4.99762 28 25 31 
1.1745 -0.708599 -3.77595 56 53 90 
1.88609 -0.290454 -5.07686 88 67 82 
2.08784 0.842751 -5.16777 119 91 95 
2.24244 -0.370845 -5.1313 105 78 87 
0.240976 1.27454 -4.53306 64 47 74 
1.87593 0.691108 -5.14331 68 54 66 
1.63683 -0.395474 -5.02886 79 72 91 
1.68637 0.564754 -5.08916 86 73 105 
-1.88165 0.961033 -4.54301 108 82 106 
-2.04817 -0.59742 -4.42113 124 110 138 
1.3545 0.873359 -5.05225 113 94 120 
-10.3579 0.878923 -6.60035 205 168 155 
1.56644 0.159149 -5.0457 104 84 101 
0.826475 1.26828 -4.70323 46 37 79 
-11.1314 3.78183 -6.48469 190 150 148 
1.90215 -1.05485 -4.95905 50 42 44 
1.69758 -0.829706 -5.01386 72 67 77 
1.78384 -0.760359 -5.03066 84 76 96 
1.55003 -0.736975 -4.99461 70 61 71 
1.51868 -0.387833 -5.00376 70 61 77 
1.76974 0.0529728 -5.07463 113 96 113 
2.01921 0.312437 -5.12874 87 72 90 
1.78632 -0.0698784 -5.07247 94 76 97 
1.36974 1.22291 -5.0735 87 75 101 
-0.667434 0.126728 -4.5178 56 45 73 
-12.1522 1.99372 -6.02041 237 195 171 
1.166 1.14589 -5.03395 117 102 130 
1.36811 -0.288946 -4.63755 64 56 95 
-1.55095 -0.198876 -4.50251 128 104 128 
1.54731 1.12194 -5.10342 105 86 112 
1.25256 0.486553 -5.01491 99 86 112 
1.86718 0.253281 -5.10054 105 84 109 
2.25808 -0.105399 -5.15094 85 69 78 
1.34909 0.740698 -5.03208 116 95 120 
1.57885 -0.514588 -5.00853 46 35 50 
1.65675 0.311823 -5.01854 109 90 115 
1.69696 -0.371262 -5.05548 76 67 77 
-12.2746 4.94637 -6.15832 237 188 174 
-12.016 1.93596 -5.99655 190 149 145 
1.99982 0.853365 -5.15692 116 96 109 
2.13101 -0.187952 -5.12319 110 95 111 
-0.412695 0.724571 -4.52882 75 63 112 
2.07132 0.286083 -5.14597 65 47 64 
1.97534 0.0548663 -5.11595 115 97 110 
1.82439 0.280045 -5.11505 113 90 102 
2.17229 0.842807 -5.17793 108 82 95 
-10.5023 3.39405 -6.68207 183 148 146 
1.2573 -0.543167 -3.85944 23 24 39 
2.12331 0.515206 -5.16002 76 51 64 
2.04068 -0.0644054 -5.11685 112 94 111 
1.8001 -0.0436528 -5.07902 81 61 80 
-10.1168 0.974438 -6.58652 212 174 158 
2.01917 0.533689 -5.13916 105 85 104 
-10.4937 4.37555 -6.75502 172 129 126 
1.53732 -0.503754 -4.57135 70 67 99 
2.24708 0.534183 -5.1774 106 85 110 
2.19389 -0.553246 -5.11472 119 95 102 
-12.7066 2.054 -5.58911 107 96 132 
1.62381 0.765819 -5.08759 97 76 101 
1.86553 -0.0566937 -5.08543 120 100 114 
1.96361 -0.224702 -5.08971 62 45 62 
2.11391 -0.903229 -5.08006 93 80 103 
1.65709 -0.11752 -5.04269 89 68 85 
1.88795 0.219812 -5.09944 122 109 131 
0.90437 1.22398 -5.00026 60 50 66 
1.18206 -0.552066 -3.7395 48 47 81 
2.15452 0.437827 -5.16405 116 94 113 
1.57112 -0.631537 -5.00126 64 50 58 
1.16346 -0.838123 -4.17636 44 41 73 
1.98201 -0.78528 -5.06216 96 77 93 
1.6387 -1.03816 -4.91671 30 28 28 
1.41826 1.22025 -5.08588 90 78 107 
1.38246 0.746498 -5.05622 114 93 114 
-0.174406 -0.250189 -4.42493 103 88 146 
1.04744 -0.909058 -3.50085 26 25 51 
1.62629 -1.04174 -4.4988 28 30 31 
-12.5571 -0.331255 -5.68879 157 126 116 
-10.0053 -1.02089 -6.61033 192 157 147 
1.8949 0.832463 -5.1451 102 80 95 
2.09694 -0.00275984 -5.12951 102 76 86 
1.75202 -0.494678 -5.06628 51 37 48 
0.400929 -0.0634603 -4.51079 54 69 88 
-1.63795 1.64078 -4.62101 110 87 104 
2.16426 0.573694 -5.16876 129 100 123 
1.14605 1.12764 -5.03303 69 61 84 
-0.610841 0.304809 -4.50772 37 32 73 
1.93903 1.04987 -5.16019 105 92 116 
1.18513 1.05826 -5.0342 90 76 104 
-1.21987 1.02941 -4.65443 132 109 124 
1.98711 -1.06574 -4.96807 86 76 88 
2.03627 -0.853755 -5.08227 86 73 74 
1.34704 0.858927 -5.05348 102 86 112 
1.78366 -0.0132118 -5.07417 60 49 57 
-11.2964 4.49659 -6.48791 235 189 172 
1.99089 0.339009 -5.12906 108 88 110 
-1.75551 1.04288 -4.56017 107 87 109 
2.15159 -0.716493 -5.10328 109 92 112 
1.25189 -0.58705 -4.47906 17 20 25 
1.39509 0.79852 -5.05748 116 94 108 
1.37109 -0.914508 -4.50665 48 51 70 
-10.3081 3.58912 -6.76957 237 193 179 
-9.9688 2.54128 -6.82444 175 150 160 
1.82682 0.226389 -5.09349 109 92 115 
1.89912 0.311627 -5.11965 111 89 106 
2.25762 -0.364176 -5.13782 118 90 97 
-11.7312 -1.28654 -5.94697 119 101 120 
1.98348 -0.197459 -5.09513 72 60 75 
1.3308 0.872834 -5.04672 99 83 114 
0.241702 -0.156549 -4.52369 39 34 73 
-0.357699 0.709219 -4.59154 80 67 93 
1.79777 0.175583 -5.10461 46 34 46 
-0.70615 0.0940932 -4.48735 47 42 81 
0.927227 1.25578 -5.01004 80 62 73 
-1.58832 -0.119795 -4.51193 123 110 136 
-1.16935 0.870686 -4.64213 107 92 118 
1.18827 -0.904806 -3.71394 93 74 117 
1.87849 0.887505 -5.1078 113 91 116 
1.72626 0.0690286 -5.06565 67 65 79 
1.89025 0.981057 -5.14365 76 61 77 
1.90182 -0.461596 -5.07302 102 83 97 
-11.0906 0.768703 -6.43357 207 167 155 
0.250169 -0.320372 -4.36479 116 96 135 
1.47445 -0.0160681 -5.02668 34 29 42 
1.96977 0.348544 -5.12954 103 81 105 
1.62348 1.06217 -5.1339 98 82 113 
1.38698 0.886693 -5.06023 107 89 120 
2.24289 0.0860954 -5.15848 114 96 113 
1.77774 0.365544 -5.10659 109 89 102 
2.19143 -0.11692 -5.13855 102 75 89 
1.63407 -0.660795 -5.01753 55 41 50 
1.40434 0.454278 -5.03396 119 102 130 
1.27046 -0.931928 -3.82499 31 25 46 
2.29134 -0.733674 -5.13448 117 93 96 
1.79466 0.0398427 -5.0794 92 76 99 
1.96582 0.551134 -5.13658 105 78 98 
1.69501 0.873719 -5.10753 76 64 92 
1.24287 -0.905654 -3.80129 98 78 121 
2.25045 -0.238103 -5.14251 108 81 96 
2.08412 -0.130355 -5.12976 68 49 62 
1.80984 0.360039 -5.11878 112 82 101 
-12.7124 0.570332 -5.60102 96 72 75 
-9.82832 2.23306 -6.90381 180 136 140 
-2.03033 1.47385 -4.54368 138 117 141 
1.72251 -0.362195 -5.04751 95 77 83 
1.55305 -0.599228 -4.52816 48 46 71 
-11.383 4.00734 -6.3689 255 213 192 
1.0871 1.02532 -5.0172 103 85 102 
0.333659 0.18839 -4.59446 43 73 100 
-10.6201 3.27213 -6.64042 188 145 137 
2.24805 -0.86089 -5.11413 113 92 101 
-10.9207 4.64295 -6.66753 195 153 143 
2.23481 -0.609404 -5.11401 96 74 76 
0.811662 0.269704 -4.76383 82 70 122 
1.20342 -0.890054 -3.77953 44 42 78 
2.02781 -0.532817 -5.08483 104 84 94 
2.10638 -0.43126 -5.09973 81 59 70 
-0.620094 0.277972 -4.50208 34 31 70 
2.24275 -0.228996 -5.14675 127 108 125 
2.15741 -0.104812 -5.13674 109 93 111 
0.390651 0.251034 -4.60906 28 44 76 
-0.0284349 0.951017 -4.46708 111 91 136 
2.05929 0.27512 -5.14223 98 74 94 
1.25731 -1.00826 -3.79626 54 52 82 
2.14754 -0.0783993 -5.13408 109 93 111 
2.08153 -0.969823 -5.0628 113 103 112 
-10.3844 2.36929 -6.65173 180 139 129 
1.46735 -0.241643 -4.69399 116 102 155 
-11.3366 -0.476311 -6.2486 192 154 142 
1.39636 -0.854506 -4.52153 63 51 70 
-10.46 4.60933 -6.87015 234 186 173 
1.20563 1.1824 -5.04472 115 96 123 
0.263323 0.78245 -4.59514 80 69 115 
-1.09185 1.75987 -4.70629 101 79 107 
1.69914 0.639332 -5.09557 69 63 93 
1.89103 0.376705 -5.1225 71 60 82 
1.16031 -0.9926 -3.65551 56 51 82 
1.5281 -0.684102 -4.99775 31 25 32 
1.8512 -0.949805 -5.03552 83 72 85 
-13.0098 5.23695 -5.82486 194 154 149 
2.16669 -0.144362 -5.13873 90 71 83 
0.171997 1.12454 -4.51303 57 43 81 
-0.625829 0.416221 -4.49375 65 54 101 
1.41434 0.109896 -4.76106 70 60 95 
1.47689 -0.477579 -4.56564 53 49 61 
-1.17556 1.37694 -4.67645 112 92 120 
-11.5008 -1.18751 -6.02241 124 110 134 
1.95525 -0.465799 -5.08078 91 66 76 
-10.4423 2.11598 -6.77286 228 184 170 
1.61585 -0.0360814 -5.0517 89 69 86 
2.10349 0.878917 -5.17141 120 98 117 
1.15926 0.488358 -4.99663 68 62 93 
1.16989 -0.902943 -4.47639 27 26 32 
1.67734 0.104719 -5.06734 73 59 71 
2.15874 0.529205 -5.17321 102 81 89 
1.16793 1.21686 -5.04136 107 91 119 
1.77443 0.812388 -5.17597 119 96 111 
1.30544 0.802214 -5.03782 97 79 108 
1.17898 -0.731211 -4.48742 39 36 64 
2.07474 0.341524 -5.13949 96 73 97 
1.99065 -0.0966156 -5.10251 112 99 125 
1.90645 0.174065 -5.11297 86 74 96 
2.1326 -0.607892 -5.09594 83 63 75 
1.16114 1.07105 -5.03108 96 83 106 
1.95618 -0.957177 -5.05299 57 43 50 
-1.85587 0.402756 -4.50586 124 101 123 
1.47807 -0.976273 -4.4729 56 58 71 
1.49647 0.463776 -5.05194 113 98 124 
2.03288 -0.678368 -5.07868 113 89 92 
2.21481 0.753677 -5.19031 118 95 112 
1.77246 1.09575 -5.12991 89 69 99 
1.06928 1.26749 -5.02151 111 95 123 
-10.639 -0.737732 -6.38006 186 147 139 
-1.71438 1.38448 -4.58644 130 104 122 
1.22977 -0.934449 -3.75999 54 51 82 
-1.79673 1.66547 -4.58925 126 99 125 
1.81008 1.02441 -5.13243 107 93 117 
1.94326 -0.110616 -5.0955 82 64 82 
-11.2008 4.08133 -6.53794 191 146 138 
1.49233 -0.274391 -5.01383 46 36 52 
2.02543 -0.745337 -5.07489 108 86 96 
-12.882 3.96611 -5.84131 206 166 157 
1.24479 -1.00589 -3.77707 34 31 47 
2.03003 -1.05096 -4.98033 72 67 73 
0.802071 0.00807465 -4.75061 71 63 116 
1.32438 0.872824 -5.04592 107 91 122 
1.37695 -0.283487 -4.64009 99 88 128 
1.65752 -0.558554 -5.03098 69 61 68 
1.96426 0.616522 -5.14033 134 109 129 
1.3561 0.736494 -5.04278 117 97 124 
2.20637 -0.0863458 -5.14312 107 88 105 
0.806917 -0.828525 -3.47386 124 102 132 
1.59938 -0.989625 -4.64331 48 42 66 
-11.4975 0.797662 -6.21923 208 165 150 
1.65678 0.149271 -5.06352 79 62 79 
-11.0684 4.89325 -6.59399 187 141 135 
2.16279 0.531221 -5.17346 95 71 86 
-12.4659 -0.523601 -5.47598 100 81 89 
1.63709 -0.985851 -4.96166 53 51 52 
2.17832 0.4384 -5.16127 102 83 100 
2.15837 0.122608 -5.14534 113 97 120 
-10.9408 -0.772873 -6.27075 214 178 159 
-1.96095 0.850252 -4.5131 138 115 137 
1.30403 1.22979 -5.06112 130 113 137 
2.26287 -0.444022 -5.13423 107 90 103 
2.27206 0.754049 -5.20041 99 76 90 
2.06667 0.17461 -5.13532 80 69 86 
2.15388 -0.565187 -5.10699 103 85 93 
-10.6248 3.87159 -6.70144 155 114 115 
2.20992 0.35951 -5.17102 91 72 88 
1.6343 -0.986015 -4.95852 50 49 53 
2.21219 -0.380727 -5.12537 108 76 87 
1.9014 -0.0438268 -5.10185 111 84 97 
2.08939 -0.706139 -5.07665 108 89 108 
1.7819 0.949938 -5.12266 118 100 125 
2.21275 -0.142325 -5.14411 71 53 67 
1.65155 -0.827278 -5.00869 36 29 37 
2.27996 0.487203 -5.18757 132 105 114 
1.90875 0.917749 -5.14539 101 81 104 
-9.76796 -1.17344 -6.62091 132 115 132 
1.50164 -0.973717 -4.47918 50 49 56 
-0.250339 -0.346488 -4.30312 75 63 81 
-10.9187 3.19788 -6.62729 176 137 133 
1.7843 1.03876 -5.12861 119 100 123 
2.23901 0.846441 -5.19551 124 96 111 
2.10577 -0.173056 -5.11883 98 77 92 
1.54307 0.330165 -5.05057 112 98 124 
1.83548 0.768864 -5.1242 97 73 97 
1.13526 1.01123 -4.76047 65 58 103 
0.128085 0.698829 -4.57869 75 65 97 
2.10491 0.303321 -5.14986 69 57 77 
1.72979 0.868479 -5.11185 84 70 98 
1.99809 1.03819 -5.16791 104 94 107 
1.36356 0.73557 -5.05149 98 78 101 
-12.4469 -0.940692 -5.7408 114 97 118 
1.36456 0.698793 -5.04633 107 91 115 
2.25453 0.0241763 -5.15995 126 102 114 
-12.7765 4.98253 -5.88714 220 176 163 
2.25653 -0.920474 -5.10245 99 75 84 
0.732186 0.165304 -4.7649 34 26 49 
-10.6977 4.7348 -6.67265 198 155 141 
1.26219 0.974833 -5.04706 109 90 109 
1.87242 -1.04735 -4.95322 75 67 76 
1.98192 -1.08848 -4.97164 71 64 81 
1.06478 1.24387 -5.02396 96 81 107 
1.15439 -0.673171 -4.26101 31 31 54 
1.05781 -0.458955 -4.50306 97 75 119 
0.619939 1.06565 -4.55501 66 51 89 
0.0020442 0.617184 -4.51544 86 76 123 
-1.06331 0.846987 -4.66469 118 89 104 
1.63497 -1.03987 -4.91554 31 31 31 
1.04881 0.855433 -5.0012 79 65 78 
1.84404 -0.226186 -5.07892 69 58 74 
1.46086 0.370406 -5.03284 116 98 102 
0.145965 -0.605804 -3.37987 97 79 122 
-12.6712 3.43347 -5.94127 203 174 169 
2.22469 0.41139 -5.17417 105 82 96 
-10.6729 -0.154215 -6.49254 143 107 99 
1.28104 0.851181 -5.04186 72 65 100 
-10.6996 4.98935 -6.74124 193 156 150 
1.67998 0.0639312 -5.06227 77 58 75 
-11.6696 -0.248217 -6.23044 194 153 141 
1.23415 -0.95377 -4.04796 43 42 68 
1.85121 0.907661 -5.12982 109 96 121 
-1.68508 1.87453 -4.6208 116 91 117 
1.79189 -0.926649 -5.02619 77 69 79 
1.64763 0.179542 -5.07236 64 48 65 
0.952952 -0.506285 -3.45449 43 36 77 
-10.7112 1.35157 -6.43406 206 163 153 
1.67276 0.560448 -5.08637 111 97 124 
1.78156 1.06719 -5.13141 84 71 94 
2.22927 -0.0725225 -5.14916 108 89 104 
2.14864 -1.03134 -5.00651 96 88 99 
-11.091 4.01443 -6.62657 178 138 144 
1.11911 -0.648276 -3.69991 52 42 65 
2.17796 -0.625498 -5.10679 108 82 88 
1.78551 0.382201 -5.10259 86 67 88 
1.50012 -0.935906 -4.51204 54 46 46 
-10.4075 4.86059 -6.85177 223 177 166 
2.08457 -1.07933 -4.98543 76 66 76 
1.87433 -0.793607 -5.04789 85 73 89 
1.82693 -0.694354 -5.06187 83 67 78 
1.47387 -0.694691 -4.54107 31 29 50 
1.85178 0.621791 -5.11947 102 89 113 
-1.21296 0.605073 -4.62075 126 105 130 
1.21315 -0.690112 -3.83334 62 54 94 
0.99085 0.101972 -4.80088 74 65 121 
1.06385 -0.919351 -3.52582 56 53 79 
1.77991 -0.839059 -5.03162 82 72 87 
1.4978 -0.0425691 -5.02568 61 51 67 
1.51997 -0.197174 -5.01819 52 42 55 
1.00852 -0.817702 -3.54333 49 42 63 
2.19706 0.483476 -5.16302 123 99 113 
0.939079 0.0232971 -4.77093 30 30 70 
1.94126 -0.499566 -5.06998 87 78 97 
-11.0533 3.6435 -6.56881 176 137 133 
2.27403 -0.39108 -5.13702 103 73 82 
1.61239 -0.966275 -4.49641 37 38 55 
